ply
format ascii 1.0
comment PCL generated
element vertex 1404
property float x
property float y
property float z
element face 0
element camera 0
property float view_px
property float view_py
property float view_pz
property float x_axisx
property float x_axisy
property float x_axisz
property float y_axisx
property float y_axisy
property float y_axisz
property float z_axisx
property float z_axisy
property float z_axisz
property float focal
property float scalex
property float scaley
property float centerx
property float centery
property int viewportx
property int viewporty
property float k1
property float k2
end_header
-0.6900512 0.13952334 -0.2191195
-0.45063132 0.22648323 -0.311039
-1.1351738 -0.44734919 -0.4743664
-0.9144966 -0.37449139 -0.5553813
-0.79537964 -0.32575026 -0.59729952
-0.61123717 -0.28025109 -0.66415185
-0.57553339 -0.26045573 -0.68087673
-0.45745724 -0.19348894 -0.73331362
-0.25886613 -0.15132496 -0.79926437
-1.1613702 -0.38303033 -0.45215145
-1.0370167 -0.33754516 -0.47372693
-0.79289234 -0.28339669 -0.55054897
-0.76768756 -0.28815931 -0.61154908
-0.70166993 -0.24286921 -0.63327813
-0.64353502 -0.20080614 -0.65207779
-0.59737462 -0.20392469 -0.6730032
-0.33019394 -0.10357365 -0.77362096
-0.1533789 -0.022012234 -0.81057549
-0.082722068 -0.0065995455 -0.82788765
0.025448442 0.0034886897 -0.84028584
-1.4701085 -0.45946789 -0.28374562
-1.1458286 -0.34222776 -0.38694355
-1.0375781 -0.31230915 -0.42963865
-0.85252452 -0.26688358 -0.52786887
-0.24139929 -0.026124716 -0.77559566
-2.2967916 -0.77338469 0.13374212
-2.1800463 -0.73660052 0.07810387
-2.099782 -0.64759314 0.05300048
-2.0594673 -0.62724602 0.038506508
-1.975481 -0.67175746 -0.0062378347
-1.8465748 -0.55033875 -0.043046653
-1.7430903 -0.56823856 -0.091925099
-1.6831259 -0.51742589 -0.1100401
-1.5505714 -0.46990362 -0.18153565
-1.4773312 -0.41795674 -0.21145612
-0.87755519 -0.21611947 -0.4445647
-0.053380966 0.079125375 -0.78735584
-0.0033382177 0.1158247 -0.77211535
0.093079925 0.14925045 -0.7862519
0.39824677 0.2018472 -0.91276872
0.45398867 0.22612786 -0.93344456
0.58291435 0.33764446 -0.97192878
0.96156693 0.40633333 -1.128406
1.1369787 0.51263148 -1.1851186
1.1801627 0.53635728 -1.1983593
1.4030596 0.60047746 -1.273898
-2.6966128 -0.8622722 0.35252535
-2.6210921 -0.83007973 0.31008685
-2.5918469 -0.79362166 0.29808053
-2.3634231 -0.67350042 0.1943109
-2.0302672 -0.57706869 0.037499696
-1.8480128 -0.50432152 -0.029078156
-1.7995813 -0.4853766 -0.047037691
-0.25257736 0.04468587 -0.63556075
-0.1670143 0.064545631 -0.67145383
0.51376748 0.32794732 -0.94287467
1.0078839 0.51316679 -1.1310172
1.1420826 0.56186044 -1.1781893
-2.7641969 -0.82757878 0.40450448
-2.689187 -0.76197624 0.37977389
-2.609298 -0.73593104 0.33345339
1.5512524 0.75551564 -1.2655877
1.6108023 0.79147255 -1.2548721
1.6674443 0.76804608 -1.2917886
1.7129937 0.78099549 -1.2956431
1.5846055 0.81135464 -1.2273104
1.7588335 0.82821834 -1.2601087
-3.0919852 -0.87928075 0.64326668
-3.0218389 -0.83519816 0.61463046
-2.8920722 -0.73931205 0.57944787
1.547045 0.84054279 -1.1730239
1.6468942 0.88069743 -1.1425425
-3.0803409 -0.81026262 0.70766848
-2.7610469 -0.66966712 0.53355002
1.6029019 0.88974953 -1.0851924
-3.8563895 -1.0304433 1.0670063
-3.7708125 -1.0144874 1.011186
-3.6402338 -0.94861364 0.99511254
-3.5940676 -0.91457111 0.96755391
-3.5348506 -0.91199851 0.88479668
-3.4686012 -0.88642246 0.88049901
-3.3984115 -0.91549093 0.87515259
-3.0117736 -0.74804491 0.73942316
-2.9710724 -0.73180515 0.70785201
-2.8778563 -0.68433338 0.68126023
-2.8449638 -0.66269726 0.69321769
-2.6979659 -0.60307807 0.60994047
-2.6659458 -0.60018253 0.55112642
-2.5018222 -0.52180624 0.51846325
-1.8303967 -0.26257083 0.26709628
-1.3323424 -0.084335409 0.064877003
-0.68888211 0.15309125 -0.16002452
-0.43590641 0.24168612 -0.27790859
-0.23542184 0.31807643 -0.34007311
0.55320108 0.60371709 -0.64718997
1.16733 0.81554472 -0.89712578
1.3574454 0.86386913 -0.98646563
1.4468995 0.89139265 -0.94284755
-2.6554298 -0.57902843 0.61703449
-2.5489755 -0.53433812 0.57777351
-2.4836833 -0.50994152 0.61142272
-2.1264579 -0.37223676 0.48492756
-1.9588325 -0.31068721 0.41882825
-1.9290845 -0.29841775 0.33830935
-1.7924221 -0.24963826 0.32780069
-1.6754355 -0.20720161 0.29116783
-0.71742189 0.14198557 -0.11750088
-0.60805488 0.18124363 -0.13214901
-0.33540493 0.28015015 -0.22546068
-0.079800367 0.37247321 -0.29333222
0.37457645 0.53830707 -0.49500209
0.52918315 0.59465688 -0.56046718
0.58597994 0.6162045 -0.62383306
0.66212213 0.64282405 -0.60670328
-1.582908 -0.67497218 -0.23042554
-1.4175452 -0.58556271 -0.33181468
-1.3357093 -0.60000378 -0.35389766
-1.3039975 -0.55361545 -0.38341367
-1.2329375 -0.51705647 -0.42050523
-1.0500313 -0.48869923 -0.47378117
-1.0198995 -0.43896043 -0.47395164
-0.90602195 -0.42930508 -0.53213191
-0.79531002 -0.40416506 -0.56761599
-0.60729748 -0.32424259 -0.64483404
-0.51841015 -0.31647891 -0.66757703
-0.40455866 -0.23960552 -0.72740227
-0.25239688 -0.20795748 -0.77471048
-0.1616841 -0.1399098 -0.82493401
-0.08582449 -0.10953856 -0.84369004
-1.6929781 -0.67840093 -0.15253574
-1.5890036 -0.62238675 -0.234799
-0.76774991 -0.34375271 -0.54220057
-2.2339559 -0.80926049 0.10723904
-1.9602392 -0.74297357 -0.0054196715
-1.9440618 -0.68708766 -0.016712278
-1.8649218 -0.65011716 -0.04781127
0.21190369 0.10593233 -0.84254479
0.28590906 0.061159849 -0.86367869
0.4048661 0.14348304 -0.91310936
0.50516331 0.21334028 -0.95488745
0.78284585 0.31689143 -1.061367
1.1534867 0.41188103 -1.1969427
1.2053782 0.459921 -1.2175133
1.3322369 0.46724051 -1.2578775
-2.6680369 -0.93711936 0.33361679
-2.5332694 -0.90535605 0.25765681
-2.4785042 -0.84261745 0.22073877
-0.76648927 -0.28609428 -0.41407329
0.73638201 0.30939984 -1.04452
1.4569428 0.58478463 -1.2963428
1.6250292 0.60468125 -1.3429008
1.7014061 0.63458139 -1.3535122
-2.9587526 -1.0016825 0.50691861
-2.7467556 -0.92032075 0.37613422
-2.6522403 -0.89470792 0.32123053
1.7632679 0.70703876 -1.35127
1.8491027 0.72728091 -1.3589022
-3.1434894 -1.037828 0.62750304
-3.0248125 -0.98141438 0.55360448
1.794645 0.78496361 -1.3098747
-3.2053506 -0.99780494 0.67556596
-3.0684891 -0.93262142 0.59576273
1.8388214 0.84877157 -1.2316004
1.9041289 0.83335042 -1.254961
-3.5196152 -1.0896763 0.88460386
-3.3795438 -1.0067718 0.81023061
-3.2611327 -0.94727147 0.74728727
1.7772959 0.87682891 -1.1718677
-3.5620546 -1.0529004 0.9460578
-3.4753544 -0.99565971 0.90866768
-3.2596149 -0.89534658 0.80193079
1.7223328 0.89496422 -1.0979133
-3.8232727 -1.0764421 1.0919595
-3.744647 -1.0563003 1.0723373
-3.6539385 -1.0667771 1.0246073
-3.5924616 -1.0173805 1.0318537
-3.5648208 -0.98813158 0.97939909
-3.4120708 -0.91683388 0.94161034
-3.341769 -0.89770436 0.91626388
-3.063035 -0.76673979 0.78716439
1.5731535 0.90569019 -1.0029844
1.6296982 0.90770954 -1.0051876
-3.487978 -0.95931065 1.0158193
-3.2871504 -0.86132246 0.95926613
-3.2626626 -0.85507286 0.90405059
-3.1916299 -0.81781441 0.91705137
-2.8763647 -0.67545921 0.80736583
-1.3318304 -0.083088525 0.19151765
-0.23328137 0.31655461 -0.23042583
1.3304205 0.86725897 -0.83873385
1.4476446 0.88953602 -0.86405808
-2.6452057 -0.58033454 0.73323703
-2.4972692 -0.52368271 0.67899722
-2.408257 -0.49332109 0.65825653
-2.3335872 -0.46793687 0.63844955
-2.1868033 -0.41565385 0.59152544
-2.1553397 -0.40325257 0.57708246
-1.8109504 -0.26194772 0.39120638
-1.6359499 -0.20998213 0.36600697
-1.6052918 -0.1847804 0.30414608
-1.3550708 -0.1147467 0.28302902
-0.67881215 0.15404487 -0.057148829
-0.25003552 0.29600388 -0.17169277
0.12564051 0.4310908 -0.30978703
0.26333582 0.49345112 -0.40634841
0.3120501 0.51279891 -0.43086901
0.71403241 0.64320427 -0.52860117
0.80965936 0.68569863 -0.59263074
1.0490977 0.75699627 -0.62816656
1.0544732 0.77666461 -0.69324237
1.1066564 0.79649729 -0.71592075
-1.5078751 -0.70467955 -0.23987702
-1.1253279 -0.59851235 -0.39074877
-0.87005472 -0.49530566 -0.49731219
-0.73149031 -0.45143673 -0.5447523
-0.69654602 -0.43040943 -0.56524611
-0.48956555 -0.33918858 -0.65810359
-0.40387726 -0.33779263 -0.66541159
-0.28409725 -0.27991128 -0.72350729
0.055931091 -0.12881413 -0.83670837
-1.9895062 -0.82280773 0.020716608
-1.8292735 -0.77996659 -0.034903854
-1.7566535 -0.71951628 -0.088802218
-1.6511089 -0.73389286 -0.15613616
-0.98933125 -0.47672901 -0.42995757
0.42372847 0.022399604 -0.89082068
0.55976641 0.10406509 -0.95474917
0.65960515 0.13079008 -0.98936427
0.99989867 0.25026798 -1.1180316
1.0957665 0.29249087 -1.1574571
1.1991534 0.33291918 -1.1954873
-2.4216876 -0.926108 0.20299622
-2.187433 -0.87079966 0.097936988
-0.72238874 -0.342204 -0.42218179
0.50793242 0.13027835 -0.94738907
0.53950107 0.14456677 -0.95976382
1.0295967 0.29341263 -1.1412654
1.0656149 0.33079815 -1.160547
1.1010097 0.33911562 -1.1736201
1.3215883 0.43124706 -1.2513528
1.5269611 0.48797306 -1.3158839
1.5999113 0.5204556 -1.333735
-2.805639 -1.0110931 0.41967961
-0.91152793 -0.36156666 -0.33911654
-0.84640205 -0.35349515 -0.35067242
1.8050086 0.65729576 -1.3707247
-2.9901748 -1.1045939 0.54597723
-2.9640145 -1.0397704 0.51696122
2.0130029 0.7669974 -1.3417115
-3.376255 -1.1483787 0.77645159
-3.2189469 -1.1515682 0.68569684
-3.1572742 -1.0893197 0.63829076
1.9579883 0.77933955 -1.3327965
-3.3160949 -1.0999773 0.73705244
-3.8086078 -1.2411884 1.0657744
-3.7161398 -1.1880769 0.99973631
-3.4736862 -1.1023804 0.84302992
1.9129353 0.85514367 -1.150654
-3.868156 -1.2431889 1.1162939
-3.6688657 -1.1220721 0.98890018
-3.5227401 -1.0799334 1.0044945
-3.3704991 -1.0080804 0.92157584
-3.7460682 -1.1159978 1.0754256
-3.6223631 -1.0925078 1.0368677
-3.5888147 -1.0764284 1.0706733
-3.5252204 -1.0121661 1.0207472
-3.4257159 -1.0127022 1.0087023
-3.3762026 -0.96698332 0.9714365
-3.2750175 -0.95943022 0.93837279
1.7254711 0.90710783 -0.99660808
1.8101449 0.8896457 -0.99139106
-3.8171024 -1.1183265 1.2049581
-3.7071395 -1.0585849 1.1693703
-3.5647306 -0.98859078 1.0959293
-3.4980645 -0.95882338 1.0788734
1.6184126 0.90267283 -0.90146089
1.672316 0.90478891 -0.92702436
-3.5264156 -0.97338814 1.1253995
-3.4394355 -0.93952554 1.1013453
-3.290519 -0.88351029 1.0793518
-2.965086 -0.72387391 0.89297724
-2.7848301 -0.6486128 0.83243144
-2.7139347 -0.61997139 0.80615056
-2.4894104 -0.54072648 0.74510062
-2.311996 -0.47952199 0.69125408
-2.0494134 -0.37015083 0.55911732
-2.0021822 -0.35546538 0.54963577
-1.8207772 -0.30268821 0.50825596
-1.5526431 -0.19855911 0.39392108
-0.50844705 0.18123972 -0.0057065338
-0.35861272 0.24249038 -0.080168113
-0.096898973 0.33122146 -0.16385685
0.14689064 0.42733741 -0.2771754
0.92321694 0.71040422 -0.57705897
1.4136031 0.86512542 -0.7637428
1.4581255 0.87415105 -0.7847966
-2.4164991 -0.52517742 0.74385792
-2.195683 -0.44481003 0.66088665
-1.8601682 -0.32487148 0.53730726
-1.7857565 -0.30441383 0.52041793
-1.6237068 -0.23267137 0.43583953
-1.3244185 -0.12422641 0.32191539
-0.57243896 0.1304546 0.067514107
-0.40362525 0.2057198 -0.021749049
-0.30412906 0.23700815 -0.051149875
-0.18101948 0.27025893 -0.077851027
-0.029503524 0.33994839 -0.16176607
0.088971615 0.38525996 -0.2109855
0.25357562 0.42981046 -0.2467608
0.36384124 0.47542885 -0.29882112
0.40941775 0.4879328 -0.30908555
0.47643507 0.52583206 -0.35857135
0.55135393 0.5425989 -0.36877778
0.84301841 0.65039212 -0.4834457
1.158832 0.77653491 -0.62424582
-1.4447284 -0.73350489 -0.22576961
-1.1935514 -0.65171266 -0.3403385
-1.0712672 -0.62225556 -0.37427959
-0.97156721 -0.56970334 -0.42638063
-0.94968545 -0.54689068 -0.39302462
-0.83816606 -0.55797035 -0.42919916
-0.77960622 -0.52414471 -0.43609953
-0.62522829 -0.43072236 -0.57006603
-0.5019868 -0.41970187 -0.58829242
-0.30865943 -0.3567766 -0.65595287
-0.27025098 -0.30687016 -0.70141637
0.0582304 -0.22750837 -0.77525592
-2.1494012 -0.92017359 0.10519278
-2.0192206 -0.94029349 0.079644531
-1.9865526 -0.89015895 0.044809908
-1.7283127 -0.78351438 -0.058712155
-1.6563283 -0.81115592 -0.057322502
-0.83205748 -0.50216228 -0.3652221
-0.70622706 -0.41840455 -0.45236111
0.16899526 -0.14166123 -0.79132676
0.23221648 -0.056502342 -0.81409484
0.38930678 -0.061135769 -0.8441419
0.43835175 -0.020848811 -0.87804258
1.1639282 0.25541842 -1.1602452
1.2421451 0.25476336 -1.1715924
1.2933229 0.3037414 -1.2216543
1.3439749 0.34220594 -1.2307754
1.5266 0.40958744 -1.2917315
-2.6454809 -1.0797189 0.36786515
-2.3726556 -1.0118989 0.21842897
-0.90844822 -0.46914023 -0.30268073
-0.75642449 -0.41987577 -0.3263675
-0.68923259 -0.41829979 -0.38036489
1.2626637 0.29718989 -1.1586211
1.3164096 0.31042957 -1.1571789
1.4891645 0.4081161 -1.2508885
1.7408346 0.48610282 -1.3272995
1.8646079 0.50848174 -1.3608243
-2.8819094 -1.1516262 0.51471019
-2.7839923 -1.1302299 0.45552734
-2.7232828 -1.1025742 0.41262418
-0.72727096 -0.35992336 -0.35366824
1.304059 0.4127149 -1.0910686
1.4294933 0.4530164 -1.1330678
1.4618447 0.44868273 -1.1779387
1.535744 0.47517776 -1.2066833
1.602905 0.48461366 -1.2509282
1.6802877 0.54275757 -1.2277843
-3.0858064 -1.1631536 0.62191474
2.0772047 0.69988805 -1.3733454
-3.388464 -1.2092471 0.79515398
2.0800951 0.76048326 -1.3377573
-3.8948565 -1.306922 1.1340004
-3.9891336 -1.3024712 1.2110051
-3.9405208 -1.3396077 1.1753904
1.9293222 0.84109676 -1.0682793
-4.0937324 -1.3342872 1.3099059
1.8919353 0.84531713 -0.99619043
-3.958725 -1.2053275 1.2637014
1.7483387 0.88794577 -0.9062959
-3.9413137 -1.2019602 1.3555498
-3.9244034 -1.1854557 1.3279543
-3.6266427 -1.0477569 1.255275
-3.4330895 -0.96764064 1.1835601
-3.0133154 -0.77442968 0.99519825
1.4764585 0.85029924 -0.73206872
1.658011 0.87021321 -0.81064826
-3.2836316 -0.91753083 1.1480612
-2.9264073 -0.76279902 1.00376
-2.7184246 -0.699067 0.95802701
-2.5849674 -0.63537812 0.89213842
-2.3830097 -0.54136008 0.78142488
-2.306551 -0.5162254 0.75748533
-1.9989896 -0.42292088 0.66911542
-1.8483387 -0.36009285 0.59799117
-1.6411815 -0.30243552 0.54255474
-1.5671884 -0.26052549 0.49797046
-0.52600253 0.12729606 0.085097998
-0.30621666 0.21893069 -0.019705594
-0.15544796 0.24202999 -0.030461371
-0.11024845 0.28183663 -0.079891682
0.063851237 0.31143877 -0.10328388
0.11396784 0.34490082 -0.13880086
0.60248411 0.53458577 -0.34117681
0.93801248 0.65832967 -0.47262889
1.1547654 0.71839219 -0.53173184
1.194169 0.74834096 -0.56519073
1.2765927 0.74889839 -0.57207537
1.3978685 0.80711263 -0.65165567
1.482337 0.81465578 -0.66901684
1.2943941 0.072612703 -1.415012
1.3731005 0.06655556 -1.3922392
-1.4882909 -0.84003991 -0.11194937
-1.3806748 -0.76354992 -0.21015556
-1.2809161 -0.74342799 -0.24623109
-1.2252597 -0.72229409 -0.27396247
-1.1571499 -0.71167547 -0.2914052
-0.89850223 -0.64966595 -0.36313948
-0.70581532 -0.52967614 -0.47960547
-0.13435352 -0.31809485 -0.7015022
-0.021440208 -0.27843544 -0.74284947
0.12743074 -0.23199478 -0.7561819
-2.3410802 -1.06236 0.24309355
-2.2458062 -1.0594647 0.21852562
-2.0776234 -0.96854532 0.11234695
-1.9348037 -0.94176459 0.068949163
-1.6385758 -0.85217249 -0.032176703
-1.5881457 -0.81677365 -0.094290212
0.18116152 -0.18253607 -0.76557416
0.41482955 -0.10172307 -0.8204453
0.5272572 -0.042304933 -0.8759045
0.63801718 -0.0045642853 -0.91657615
0.87485725 0.051928341 -0.98730505
1.0428926 0.12392735 -1.0589515
1.150764 0.16448081 -1.1010998
1.4634097 0.2704218 -1.2059895
1.5100505 0.32831991 -1.2476101
1.6659617 0.40130562 -1.3018346
-2.4796476 -1.1117709 0.32929057
-2.4417849 -1.0743043 0.28594637
1.3304646 0.27893555 -1.1353072
1.7835784 0.45341378 -1.3329496
1.9868083 0.55154645 -1.3731871
-2.9139075 -1.1735044 0.5453459
1.2895632 0.33056033 -1.0542442
1.6248291 0.45242682 -1.1464983
1.7660252 0.48963368 -1.2708175
2.0300984 0.59424353 -1.3817148
2.0661666 0.59212929 -1.3757546
-3.2320747 -1.2780259 0.76496434
-3.1509969 -1.2198102 0.68258178
-3.0425096 -1.2139856 0.63267946
-3.5364637 -1.3219538 0.92849755
-3.4096596 -1.2703137 0.83510107
-3.3520961 -1.2905304 0.8253628
-3.7082522 -1.3718286 1.0502219
-3.6544323 -1.3585916 1.0109253
-3.618628 -1.3316293 0.97039258
2.0739968 0.80731565 -1.1581786
-4.0354104 -1.3730127 1.2609187
1.9623158 0.81589723 -1.0373275
-4.1213393 -1.373491 1.353874
-4.0736642 -1.4018691 1.3474773
-4.1169977 -1.319393 1.4231323
-4.0105114 -1.2427052 1.3738787
1.7883412 0.84773976 -0.84084988
-4.0156693 -1.2705725 1.4169548
-3.8395596 -1.1968906 1.3857414
-3.6387005 -1.0768821 1.297152
1.6607497 0.80352801 -0.70240813
-3.7532778 -1.1514269 1.3926075
-3.4906263 -1.0163218 1.2593968
-3.1105409 -0.85479826 1.10653
-2.8783512 -0.77695113 1.0361106
-2.7631078 -0.74407744 1.0023835
-2.5090981 -0.67872179 0.94017828
-2.3742039 -0.62216711 0.88042629
-2.1898515 -0.54343641 0.79723883
-1.9974306 -0.47411016 0.72442704
-1.7235855 -0.34729555 0.59013253
-1.6899717 -0.35925213 0.60337532
-1.4654779 -0.29788592 0.53944021
-1.4061506 -0.2700569 0.50993407
-0.60438526 0.047547914 0.17504331
-0.36480552 0.12011768 0.099122584
-0.26962924 0.16599143 0.050424933
-0.069597006 0.24870311 -0.036761701
0.15153158 0.30512908 -0.095568448
0.3119747 0.36650324 -0.16021422
0.42050427 0.43051496 -0.22829223
0.47366816 0.45438167 -0.25343937
0.66335285 0.51224667 -0.3140032
0.7850464 0.56346357 -0.36811209
0.95646238 0.60531414 -0.41155386
1.4134451 0.74699146 -0.58297443
1.4752839 0.78813016 -0.63670957
-3.5626225 -0.99373555 1.3589681
-3.4659007 -0.95961583 1.3001841
-3.3786156 -0.91639084 1.2723778
-3.2685025 -0.8531059 1.2624193
-2.8391943 -0.74889672 1.0980231
-2.8008564 -0.74818218 1.0942807
-3.5425506 -0.92969185 1.4174695
-3.4574707 -0.88871855 1.3857498
-3.3626447 -0.84641784 1.3560874
-3.083447 -0.776878 1.2324749
-2.9913394 -0.75452363 1.2057124
-3.6767952 -0.93661314 1.550763
-3.5264053 -0.87253618 1.4730513
-3.4551883 -0.86592865 1.4136684
-3.3828654 -0.83456433 1.3895686
-3.1859422 -0.75297815 1.3466761
-3.1219165 -0.73258525 1.3324288
-3.6984649 -0.89900446 1.6191187
-3.6175444 -0.88996565 1.5434713
-3.5175834 -0.8164742 1.5349035
-3.3016291 -0.75905085 1.4252526
-3.2683716 -0.73962671 1.4273446
-3.1551733 -0.71816325 1.3774288
-3.1135898 -0.70190227 1.3747795
-3.1906576 -0.67772239 1.4643837
-3.767787 -0.84107912 1.765763
-3.6280842 -0.7844286 1.6829112
-3.5160289 -0.76849747 1.595495
-3.4013267 -0.72162366 1.5579951
-3.2149787 -0.65210581 1.520915
-3.5811286 -0.73727477 1.6958817
-3.494698 -0.678666 1.694648
-3.2524753 -0.63536441 1.5724056
-3.2010927 -0.59185654 1.6091428
-3.7347717 -0.76018673 1.824012
-3.3284266 -0.59412891 1.6879334
-3.464272 -0.61362666 1.7591388
-3.8650753 -0.70551831 2.0375147
-3.8047707 -0.69674337 1.9767914
-3.5544848 -0.58755463 1.8684947
-3.4280047 -0.56612509 1.8006544
-3.6883869 -0.59535319 1.9780602
-3.55182 -0.55680466 1.908819
-3.488163 -0.49086726 1.9569871
-3.7820525 -0.5476836 2.1299479
-3.7660105 -0.48185873 2.195715
-3.5622456 -0.44217557 2.0835981
1.3646021 0.015678525 -1.3512425
1.3965963 0.050610185 -1.3594356
1.3487878 0.10366517 -1.2974288
-1.5027578 -0.90055317 -0.041184589
-1.4122471 -0.85907197 -0.11334188
-1.0045867 -0.70385367 -0.30918285
-0.78760362 -0.66757959 -0.35571563
-0.59752136 -0.57692838 -0.44687998
-0.54375774 -0.52366823 -0.49630994
-0.34427118 -0.47136945 -0.55531275
-0.20881164 -0.44235355 -0.58981609
-0.036164582 -0.36456135 -0.66872841
0.20336556 -0.2701205 -0.70892239
1.3552028 0.17725724 -1.2095442
-2.3193128 -1.11139 0.27850422
-2.1488826 -1.0751442 0.21844223
-1.9521705 -1.0168369 0.1342575
-1.8025215 -0.95269251 0.066494256
-1.6178241 -0.89640391 0.007503897
-0.84801155 -0.64068788 -0.26639146
0.35401565 -0.19722286 -0.72762895
0.68593615 -0.043680608 -0.89013374
0.74448282 -0.035758495 -0.89819205
0.9811672 0.04235667 -0.98010349
1.1911683 0.14236426 -1.0859718
1.2447336 0.14472455 -1.0870678
1.3269045 0.17646688 -1.1030974
1.4168248 0.22539824 -1.1544991
1.621598 0.30740559 -1.2377956
1.6511075 0.32919151 -1.255519
-2.7200451 -1.1982687 0.48706368
-2.5711567 -1.1994655 0.44978198
-2.3840103 -1.1528527 0.34544244
-0.82555872 -0.59867728 -0.23309804
-0.79566717 -0.55796009 -0.20759919
-0.68284816 -0.53985512 -0.27913341
1.7932594 0.41748428 -1.2682103
1.8797894 0.41714501 -1.3017117
2.0814762 0.5075556 -1.3218474
-2.9926417 -1.2539062 0.64734519
-2.8086662 -1.2361586 0.5655036
1.4257345 0.35112172 -1.0455706
1.6263075 0.37988436 -1.0845025
1.773581 0.47461104 -1.1761017
-3.1371443 -1.2929647 0.7450099
-3.033107 -1.287524 0.70498192
-2.9817934 -1.2805148 0.67936933
-3.4805794 -1.3635478 0.9473964
-3.9335093 -1.4293404 1.2402383
-3.9018197 -1.4268484 1.219629
2.0141466 0.75180978 -0.98769975
-4.012259 -1.3476012 1.4224066
-3.9527409 -1.318718 1.4502537
-3.8857024 -1.3035985 1.4424152
-3.67349 -1.1843603 1.3795142
1.6346843 0.74136508 -0.63929105
-3.7165909 -1.1542883 1.3770155
-3.4362786 -1.0722656 1.321077
-3.3757305 -1.0369661 1.3272746
-3.1967194 -1.0026139 1.2367138
-2.9167242 -0.88245529 1.1402409
-2.8454828 -0.83792132 1.1143043
-2.5710304 -0.72186464 0.97876132
-2.5238018 -0.70486194 0.96083647
-2.3012071 -0.65599996 0.89719492
-2.018435 -0.54743636 0.78513843
-1.9734514 -0.50314748 0.7491563
-1.7671027 -0.42436469 0.66765094
-1.7025266 -0.41053548 0.64949143
-1.442543 -0.34675068 0.5706712
-1.3336174 -0.279616 0.51043797
-1.1733912 -0.25461191 0.47153789
-1.0082164 -0.1988709 0.41124508
-0.572335 0.0097593814 0.21077524
-0.39887995 0.021147862 0.17902792
-0.382034 0.062416166 0.1490891
-0.33264124 0.10882292 0.11097936
0.023315668 0.21069598 -0.0066347718
0.25129682 0.30701873 -0.10285321
0.39211076 0.31608227 -0.12843597
1.1397109 0.58396041 -0.41188341
1.1979487 0.61652434 -0.44180578
1.5271555 0.72790223 -0.59030092
-3.7665756 -1.0961393 1.481617
-3.7009976 -1.0764763 1.4748707
-3.6389117 -1.071287 1.4470154
-3.3168142 -1.0100148 1.3171372
-3.1772375 -0.95665228 1.270726
-3.1192722 -0.90838361 1.2689055
-3.0608082 -0.86407959 1.2587105
-2.9813344 -0.87661278 1.1894172
-2.8935628 -0.80001593 1.166229
-3.7839313 -1.0757992 1.5176477
-3.6382451 -1.0356201 1.4932922
-3.5501442 -1.0106591 1.4718347
-3.3474965 -0.94683546 1.4072225
-3.2727971 -0.92916155 1.3692298
-3.193625 -0.91098493 1.3250825
-3.1601028 -0.8746708 1.3331305
-2.9168079 -0.75691342 1.2073189
-3.7862253 -1.0277238 1.5821645
-3.6900783 -0.99828374 1.5706242
-3.5445819 -0.94994259 1.5437772
-3.4240894 -0.92771685 1.4867561
-3.2470911 -0.85337007 1.4301258
-3.1733501 -0.83422917 1.3854086
-3.0333815 -0.78551412 1.3022121
-2.9776127 -0.73696256 1.291078
-3.6413567 -0.94220459 1.6147186
-3.4416747 -0.88574737 1.5498347
-3.3073158 -0.84418082 1.4912848
-3.1581757 -0.7924633 1.4142237
-3.0281682 -0.69448328 1.3760448
-3.6238136 -0.90091443 1.656955
-3.560353 -0.8680712 1.6566101
-3.5009611 -0.85236061 1.6337824
-3.3558619 -0.83104879 1.5465217
-3.3177612 -0.78581536 1.5646682
-3.2035465 -0.76072049 1.4885007
-3.0990624 -0.69970888 1.4467456
-3.7682242 -0.87752831 1.770763
-3.7296853 -0.86916977 1.7603308
-3.5231934 -0.83118618 1.6754451
-3.4267364 -0.80995178 1.6275129
-3.3500021 -0.76033759 1.6201696
-3.19084 -0.69159758 1.5446954
-3.7998056 -0.86484313 1.8034198
-3.6446049 -0.80537271 1.7903463
-3.5810876 -0.80595195 1.7471569
-3.5024529 -0.77377564 1.7285035
-3.4522829 -0.74121499 1.7268441
-3.7204664 -0.7823053 1.8669746
-3.5739861 -0.76252538 1.7951645
-3.8116345 -0.75836247 1.9493506
-3.5636778 -0.67409617 1.8931404
-3.5230145 -0.68410081 1.8492355
-3.4252639 -0.65936995 1.7948563
-3.2893844 -0.55533993 1.7686127
-3.7983222 -0.73468518 1.972954
-3.7117441 -0.68897045 1.9802432
-3.6192257 -0.68621492 1.9202653
-3.4684243 -0.60482365 1.891113
-3.349823 -0.54032385 1.8427279
-3.6675234 -0.6451686 2.0044522
-3.5906236 -0.62263429 1.9738746
-3.8801165 -0.64207816 2.1368077
-3.7820389 -0.60664964 2.1286163
-3.7406027 -0.61235744 2.0949521
-3.6746399 -0.59196675 2.0742404
-3.5345359 -0.55471814 2.0029595
-3.5032482 -0.51864445 2.012032
-3.4554935 -0.5141623 1.9711711
-3.5005968 -0.42408216 2.0993712
-1.3758045 -0.88844556 -0.093300611
-1.2540413 -0.87891418 -0.12596647
-1.2281563 -0.85740912 -0.15017787
-1.0553054 -0.8051554 -0.21884319
-0.7562902 -0.68647122 -0.34177697
-0.73365593 -0.66039932 -0.36571109
-0.62312984 -0.64242303 -0.38898498
-0.53411794 -0.62600863 -0.40938699
-0.51030958 -0.60577142 -0.42840999
-0.30719811 -0.55035317 -0.4903419
0.20366204 -0.35309389 -0.65992826
-2.1351836 -1.132513 0.29281119
-2.0872636 -1.094444 0.23465526
-1.9155856 -1.0610673 0.18724328
0.251149 -0.27647647 -0.68671989
0.4174512 -0.20244026 -0.72136009
0.50176448 -0.18353295 -0.73512375
0.55004662 -0.13709295 -0.79058444
1.0545628 0.026123881 -0.96181953
1.1330721 0.043481827 -0.97212899
1.2493024 0.09440726 -1.0319265
1.5654099 0.20197725 -1.119276
1.6103287 0.23450166 -1.1586292
1.7706484 0.32622504 -1.2355367
-2.3945527 -1.1930149 0.40265796
-2.3534496 -1.1974328 0.40983552
-2.2519317 -1.1737154 0.35842797
-0.59470391 -0.5571512 -0.2927627
1.3503617 0.16725296 -1.0523241
1.9694676 0.42368245 -1.2817369
-2.8818171 -1.2921993 0.67037487
1.4564766 0.27385163 -0.9894591
1.5177884 0.29203057 -1.0250176
1.6540782 0.31705546 -1.0754769
1.8370062 0.40203643 -1.1517189
-3.145925 -1.3390517 0.81686139
-3.0410438 -1.3283497 0.77635598
2.2016723 0.57841808 -1.2837749
-3.4420462 -1.3900216 0.97772551
-3.6234534 -1.4372261 1.1328514
-3.5182393 -1.4273376 1.0880091
-3.4278853 -1.4138048 1.0453256
-3.3463709 -1.3986423 0.99172676
2.190083 0.68390191 -1.1213199
-3.7514548 -1.4461031 1.2000738
-3.7153506 -1.4484389 1.2393107
-3.8002787 -1.4443222 1.3161983
-3.7434244 -1.4476001 1.2734216
-3.8782547 -1.440922 1.3668369
-3.9977157 -1.3944361 1.4484117
-3.8718002 -1.4048268 1.4106202
1.8525594 0.72428012 -0.75134218
-3.6958582 -1.2366935 1.3992809
-3.5060225 -1.1511773 1.3421922
-3.4769273 -1.1349165 1.3305466
-3.2991445 -1.1081848 1.285092
-3.1299753 -1.0663459 1.2344379
1.6782606 0.69862145 -0.6280877
1.7691176 0.71320987 -0.6876623
1.800576 0.75197816 -0.73232311
-2.8757682 -0.92693835 1.1358503
-2.8062308 -0.89417976 1.1102284
-2.7482119 -0.88286692 1.0939659
-2.6094525 -0.85218906 1.055629
-2.4403956 -0.74177992 0.97409856
-2.0654626 -0.60045177 0.82728672
-1.9393945 -0.61292976 0.80564094
-1.9192123 -0.53720969 0.76455927
-1.6565505 -0.48359925 0.68779802
-1.4422672 -0.40030032 0.60383797
-0.96304828 -0.18991476 0.39890558
-0.73696369 -0.16289794 0.34106013
-0.66638637 -0.085438907 0.28764385
-0.612818 -0.061315455 0.2640937
-0.53879315 -0.10538594 0.27056941
-0.064054787 0.092724398 0.079497278
0.29919893 0.25104788 -0.071934164
0.41858095 0.26680085 -0.10461494
0.50149727 0.33285278 -0.15494677
0.550668 0.32701623 -0.15965426
0.59999555 0.36708674 -0.191544
0.72447115 0.37440893 -0.2204029
0.79618233 0.38330978 -0.2414439
0.86414492 0.4751921 -0.30069315
1.2168868 0.56066144 -0.41141766
-1.0945532 -0.87618649 -0.15338993
-0.7487151 -0.75482374 -0.28380281
-0.64284128 -0.69230676 -0.34487486
-0.50172812 -0.65746081 -0.38477242
-0.38486287 -0.62371278 -0.42200029
-0.084215105 -0.49371305 -0.55473745
-0.036383927 -0.48112306 -0.56892771
0.081116915 -0.47480789 -0.58047533
0.1599189 -0.39522421 -0.64170229
-1.605207 -0.97253215 0.11145616
-1.4683162 -0.99884284 0.064758167
0.67882848 -0.14880341 -0.75032914
0.89436102 -0.069495261 -0.83452147
1.0063167 -0.025039732 -0.8838613
1.1198254 0.010218263 -0.91660535
-2.4522841 -1.2327502 0.49062499
-2.1706529 -1.176235 0.37311101
-2.0178742 -1.1344559 0.31088993
-1.7759833 -1.0572788 0.21701786
-1.6113613 -1.0060076 0.17733341
0.40151078 -0.27637741 -0.60366756
1.2099879 0.023635566 -0.91527641
1.2542666 0.036208153 -0.91970646
1.3990684 0.095409214 -0.98533094
1.6885681 0.24278611 -1.1454639
1.8553213 0.30496997 -1.1630027
-2.6528161 -1.2795877 0.60646075
2.1370566 0.48346204 -1.226088
-2.8629112 -1.3192781 0.72832936
-2.7341981 -1.3016167 0.67515641
2.1676915 0.51568729 -1.1526365
-3.0169096 -1.3590553 0.90717655
2.1302528 0.51243347 -1.0603033
2.1906719 0.56978989 -1.1400151
-3.3978863 -1.4154283 1.0932212
-3.2989535 -1.3948593 0.98655581
2.1250014 0.56945443 -1.0239753
-3.4150114 -1.4098212 1.1625457
-3.575135 -1.4247249 1.2461835
-3.1224122 -1.2094467 1.0898397
1.9973509 0.61541843 -0.84697801
-3.5989184 -1.3831756 1.3287181
-3.5322368 -1.3617308 1.2842901
-3.4982226 -1.3357077 1.2870946
-3.2760596 -1.2338347 1.1875945
-3.2183447 -1.2466904 1.2012058
-3.162251 -1.2049613 1.1537031
-3.0727625 -1.2254117 1.1196077
-3.7100883 -1.358171 1.3852457
-3.3513389 -1.2234988 1.3032922
-3.1959088 -1.1864235 1.2538732
1.8366661 0.64727676 -0.69997597
-3.2388399 -1.1156681 1.2697943
-3.0790253 -1.1136498 1.2224551
-3.0413258 -1.070515 1.2093374
-2.9448733 -1.0167742 1.1772139
-2.5711985 -0.91260433 1.0612472
-2.5191574 -0.87290788 1.0408217
-2.4056854 -0.83360571 1.0000039
-2.1529636 -0.74234509 0.90556294
-1.9882016 -0.71424055 0.84984285
-1.4356167 -0.48512521 0.63339806
-1.2036636 -0.42557982 0.550583
-1.1547418 -0.37872043 0.52437973
-0.90576255 -0.2983796 0.43283048
0.20641738 0.098121822 0.0098357201
0.31866986 0.14924297 -0.036530644
1.0768228 0.42026582 -0.32487321
-2.253866 -0.74621773 0.93163276
-2.0641003 -0.6945014 0.86617583
-1.7299886 -0.56125575 0.73473233
-1.2381725 -0.39822042 0.55229831
-0.9933337 -0.30413058 0.45678872
-0.8764888 -0.23324242 0.40161002
-0.33847791 -0.074937746 0.20951559
0.30211776 0.17913248 -0.043403804
0.35846603 0.21575275 -0.070863307
0.47307289 0.25094238 -0.11232811
0.60972148 0.26828831 -0.15274578
0.94376314 0.41815829 -0.29103327
1.24796 0.50727057 -0.39956772
-1.2634633 -0.96753412 -0.020558402
-1.1045682 -0.9065122 -0.11972754
-0.77215898 -0.78503609 -0.22957048
-0.50685096 -0.71837908 -0.31085604
-0.063104987 -0.5574528 -0.48005739
-0.023816049 -0.54355443 -0.49449456
-0.79277492 -0.74630624 -0.17246683
0.33554417 -0.34735203 -0.55863607
-1.829649 -1.1049982 0.33077717
-1.5637819 -1.0026361 0.20869082
-1.4734631 -0.97577977 0.19527408
-0.78067428 -0.71397108 -0.11011361
0.41710842 -0.28432065 -0.54208386
0.56175077 -0.22783965 -0.61130083
0.63127291 -0.20368344 -0.63390779
0.76018852 -0.15336376 -0.69541001
0.99293232 -0.070667267 -0.77779853
1.1003424 -0.042617977 -0.77954757
1.515596 0.11714637 -0.94501853
-2.4158559 -1.2530509 0.56446552
-2.2739947 -1.2345693 0.54643333
-2.1261594 -1.1987592 0.48453337
-1.437145 -0.96899152 0.20414187
-0.62274998 -0.62315571 -0.13577932
-0.51445544 -0.62971199 -0.15199839
1.7866337 0.23526049 -1.0381794
1.886911 0.28907841 -1.0399908
1.9934256 0.35657358 -1.0852
-2.5892842 -1.294371 0.73244107
-2.4952712 -1.2775931 0.68408191
-2.8089607 -1.3260932 0.85634565
2.0251071 0.40426761 -0.9848572
2.0747523 0.44233149 -1.0275757
-3.0242896 -1.3571975 0.9750604
-2.8658519 -1.3337133 0.90344489
2.0893815 0.53626692 -0.97720343
-3.0665054 -1.3509474 1.0352756
2.0128274 0.53031695 -0.8581512
-3.4390109 -1.3911109 1.2281302
1.9557452 0.57820088 -0.79751569
-3.5710871 -1.4444573 1.3724706
-3.3909004 -1.3529192 1.2518547
-3.2620859 -1.3166007 1.2463773
-3.0602384 -1.2534946 1.1479626
-2.9658301 -1.2425125 1.1304419
1.8892748 0.60715133 -0.73094416
-2.9172115 -1.1023662 1.1687554
-2.7852311 -1.0751983 1.126063
-2.7035327 -1.1035752 1.090081
-2.5991817 -1.0324683 1.0665866
-2.4509344 -0.99741215 1.015981
-2.3864319 -0.96439451 0.99576968
-1.4150168 -0.60250586 0.64158279
1.7156632 0.56647611 -0.60332066
-2.5116765 -0.92835975 1.0437269
-2.3366685 -0.87762892 0.98161662
-2.0871568 -0.81353444 0.89286363
-1.9612384 -0.79092991 0.84831429
-1.8698108 -0.74128759 0.81260955
-1.7616434 -0.6994248 0.77129644
-1.6876264 -0.69944704 0.74573314
-1.5994551 -0.62428582 0.70759606
-1.5112716 -0.56012082 0.67056632
-1.3269898 -0.55958074 0.60686135
-1.1355782 -0.44861048 0.52931988
-0.84428865 -0.38836962 0.42256087
-0.65644503 -0.23971701 0.34254539
-0.58729106 -0.27670047 0.32234034
-0.39462191 -0.16438037 0.24434462
-0.32807776 -0.14033088 0.21887746
-0.24004096 -0.1112746 0.18548155
-0.15287554 -0.10249406 0.15447649
-0.082249224 -0.076130629 0.12739635
0.030227065 -0.030144066 0.083827615
0.49393559 0.12662098 -0.092419833
0.59516984 0.17946297 -0.13274986
0.66366744 0.24018198 -0.16259083
0.7744177 0.26179498 -0.2031
1.1204619 0.35797015 -0.33253086
1.2242081 0.38741899 -0.37133846
-1.0274429 -0.93028295 -0.06664899
-0.90552986 -0.8863734 -0.12387802
-0.84218764 -0.86748397 -0.14193095
-0.51979518 -0.76089799 -0.24866116
-0.32551736 -0.69065833 -0.303931
-1.3071865 -0.99252564 0.093205303
-1.2478282 -0.97968179 0.1042098
-1.0742383 -0.94787687 0.030454211
-0.75094128 -0.84629524 -0.10171846
-0.65469444 -0.79966426 -0.11409605
-0.51693344 -0.75518888 -0.18256375
-0.28128713 -0.67503417 -0.30292821
-0.070516765 -0.59860045 -0.37126878
0.082011998 -0.53511089 -0.43478784
0.14063489 -0.48598778 -0.43053153
-1.3369775 -0.95544964 0.17736131
-1.1269829 -0.95172113 0.080748729
-0.86058098 -0.81439996 0.012343803
-0.52885056 -0.71949279 -0.12038551
0.33434886 -0.36368382 -0.46705276
-2.1805873 -1.2141706 0.53628105
-2.0435469 -1.1752517 0.48488197
-1.892552 -1.1322376 0.44901982
-1.8411175 -1.1173973 0.41432166
-1.7731919 -1.0927151 0.38597322
-1.681839 -1.0587299 0.31569052
-1.3018702 -0.92171782 0.22758363
-0.73358065 -0.73139191 -0.035214834
-0.64587897 -0.73607117 -0.04273884
-0.61548567 -0.68098527 -0.086791404
-0.4994072 -0.63419425 -0.080286905
-0.4661063 -0.62319565 -0.0841683
-0.36767972 -0.57263249 -0.1216881
0.18123561 -0.37677088 -0.33115578
0.24999404 -0.3846544 -0.37571672
0.35710287 -0.31884316 -0.38920555
0.45242083 -0.28356278 -0.45705661
0.50104696 -0.26623705 -0.4574286
0.53053743 -0.25450116 -0.51459956
0.6819551 -0.20003909 -0.54822958
0.84993351 -0.13897145 -0.61090934
0.92325372 -0.11157089 -0.67163193
0.98201454 -0.090471566 -0.68241704
1.7014192 0.19025683 -0.96114326
-2.4237466 -1.2623086 0.68797648
-2.2322259 -1.2247143 0.58221263
-1.9359193 -1.1445537 0.48533201
-1.8565962 -1.1172376 0.49636537
-1.8034509 -1.104952 0.45779967
0.43369335 -0.29088283 -0.39593056
0.73384023 -0.17807966 -0.49637699
0.87187266 -0.13183737 -0.58048254
1.0930374 -0.051406205 -0.66366506
1.2913368 0.02070272 -0.74151957
1.4934061 0.099860907 -0.8252821
1.6025071 0.15493143 -0.80757058
-2.6819296 -1.3049045 0.83138525
-2.4944074 -1.2676551 0.77557284
-2.3907542 -1.2468301 0.73083937
-2.2238772 -1.2096626 0.67182386
1.8873088 0.31875765 -0.87717152
1.9689801 0.35168576 -0.97051084
-2.7458026 -1.3053682 0.88920331
-2.6439259 -1.2835072 0.86770308
-2.3654974 -1.2137768 0.80225176
1.8628225 0.33340722 -0.80992162
1.9474461 0.40945894 -0.84481061
1.9853046 0.40007782 -0.90697819
-2.5893359 -1.2251737 0.94346136
-2.4593174 -1.2037771 0.88897514
1.9192322 0.42865008 -0.78948802
1.9783909 0.47084218 -0.83681488
-2.8455865 -1.2395983 1.069932
-2.7228537 -1.2355295 1.0090474
-2.4947288 -1.1440033 0.97321683
-2.3234363 -1.0857852 0.92328644
1.8346019 0.45682338 -0.69959891
1.8966494 0.44800043 -0.75948781
-3.596077 -1.5134368 1.4582211
-3.460115 -1.4413617 1.4044855
-3.3563678 -1.3780918 1.3031075
-3.1643329 -1.3444676 1.2284563
-2.6323905 -1.109751 1.0558846
-2.5548382 -1.0948261 1.0295334
-2.2544434 -1.0262972 0.91898465
-2.0721025 -0.95502371 0.86236304
-1.6997299 -0.80587643 0.73382449
-1.4448373 -0.73941648 0.62591994
-1.0016866 -0.56866646 0.46105099
-0.64321554 -0.44694069 0.31967065
0.049013197 -0.1674777 0.065059394
0.78984219 0.081222743 -0.22534901
1.1394463 0.22096485 -0.35357186
1.4777151 0.32995349 -0.49631748
-2.2906642 -0.9607144 0.95757532
-2.1998885 -0.90644205 0.93047738
-2.1234741 -0.92013878 0.89641094
-1.9917375 -0.85848993 0.85097957
-1.8806696 -0.84333092 0.80634916
-1.6895807 -0.7557888 0.73761523
-1.5955213 -0.72439688 0.70119703
-1.5142596 -0.65134752 0.67742336
-1.3816841 -0.67534637 0.61455268
-1.1514302 -0.55183041 0.53312391
-0.86464447 -0.46903819 0.41977274
-0.80938011 -0.42052966 0.40343821
-0.71341336 -0.35931984 0.37108561
-0.62791359 -0.32131147 0.33956712
-0.50800395 -0.3339594 0.2842299
-0.37498674 -0.26861358 0.23620157
-0.17827374 -0.16406289 0.1664141
-0.029497206 -0.14675534 0.10328013
0.21623248 -0.070745647 0.0071014464
0.26982832 -0.023776501 -0.0088509321
0.36358792 -0.0011185408 -0.046669543
0.57047731 0.060343832 -0.12815115
0.68716043 0.14642268 -0.16547406
0.76455706 0.16136822 -0.19723675
0.8521871 0.18988144 -0.23132524
0.9811517 0.20902419 -0.28538865
1.0574076 0.2087653 -0.31921458
1.2392018 0.31771448 -0.38155213
1.2702439 0.35947445 -0.38840398
1.4343431 0.37895018 -0.46233115
-0.55059814 -0.77437717 -0.13895118
-0.32658261 -0.69257987 -0.23879915
-0.25789064 -0.6614089 -0.24494076
-0.10966986 -0.60893106 -0.31230441
-0.9639852 -0.90586573 0.047925927
-0.79517287 -0.83962506 0.0096292552
-0.7034483 -0.80134916 -0.012015942
-0.63226151 -0.77880716 -0.057221297
-0.59860975 -0.78478408 -0.10143737
-0.44206354 -0.7288698 -0.16106518
-0.30478242 -0.68953729 -0.19563159
-0.072130561 -0.5755437 -0.2717163
0.12496358 -0.49405012 -0.35975981
0.18474293 -0.45851791 -0.38046846
-1.0822715 -0.90812308 0.14003237
-1.0101715 -0.86760253 0.13454244
-0.78895706 -0.82228118 0.06407696
-0.62215436 -0.73646361 -0.019970343
-0.57332033 -0.71960437 -0.056738719
-0.49641541 -0.6926707 -0.051797174
-0.29539308 -0.63426149 -0.14501153
-0.14796585 -0.55074048 -0.16440904
-0.020094037 -0.5284797 -0.24584803
0.14790404 -0.48343042 -0.30035332
0.17616671 -0.43686822 -0.33827513
-1.1505222 -0.85268992 0.26671815
-0.9995538 -0.80522656 0.17945802
-0.8447662 -0.77761978 0.11670194
-0.82863545 -0.73747855 0.13642479
-0.44254166 -0.68203092 -0.018212445
-0.22391993 -0.55764365 -0.10970828
-0.042188466 -0.48846316 -0.19507959
0.23736483 -0.3589997 -0.27957991
0.62199485 -0.20745265 -0.40906984
1.0673668 -0.054938078 -0.61649227
1.1442261 -0.022838771 -0.62981188
1.6410918 0.17377931 -0.81116593
-2.0950961 -1.1548798 0.69075066
-2.0277619 -1.1524847 0.61573994
-1.9057784 -1.1085564 0.60067594
-1.5451982 -0.99022573 0.44148582
-1.3820615 -0.93134969 0.37707263
-1.2025343 -0.86142856 0.32668731
-1.1284006 -0.81921482 0.32797402
-1.0440483 -0.81013077 0.2411451
-0.99852455 -0.78056383 0.26380259
-0.88813883 -0.73930633 0.22357449
-0.8099876 -0.70351255 0.20620899
-0.74635881 -0.69036031 0.16483521
-0.6133706 -0.6489439 0.094580799
-0.30933207 -0.52036548 0.016342014
-0.059482932 -0.44058365 -0.097992986
0.14246994 -0.37330934 -0.1918759
0.25188714 -0.32545561 -0.21388614
0.32281756 -0.29959938 -0.24094927
0.48705101 -0.24633142 -0.31698689
0.52014691 -0.24032134 -0.35362777
0.57548249 -0.21290177 -0.3463769
0.89921868 -0.097515404 -0.48275247
1.2665784 0.04781127 -0.5948751
1.3701453 0.08678937 -0.63233578
1.3908017 0.083003581 -0.65996689
1.5909969 0.1714741 -0.7329796
1.788389 0.25574183 -0.83238393
-1.8916959 -1.0524346 0.68372208
-1.8362259 -1.0603735 0.62196374
-1.7044339 -1.0172157 0.56796932
-1.632593 -0.99637634 0.53142565
-1.4205697 -0.91292578 0.46120742
-1.0992475 -0.77608514 0.37215772
-0.8266654 -0.67021233 0.27908331
-0.43240595 -0.54119778 0.10399394
-0.36818612 -0.53380835 0.05248256
-0.039387524 -0.39934501 -0.04824844
0.14526576 -0.33017048 -0.11549851
0.23459721 -0.30965844 -0.16988418
0.41863626 -0.24267125 -0.24022749
0.79678571 -0.11201411 -0.39645812
0.9738251 -0.036017597 -0.44461635
1.1378182 0.044384658 -0.47214937
1.3805653 0.13014972 -0.56921589
1.4966106 0.17144096 -0.62668502
1.6304955 0.22195959 -0.69082141
1.6731033 0.23106033 -0.72419506
1.7945693 0.31416041 -0.74889451
-2.4040961 -1.1809815 0.885032
-2.3398683 -1.1487668 0.87752432
-2.0520434 -1.062149 0.78204906
-1.9655226 -1.0407857 0.74506414
-1.9361436 -1.065348 0.70097995
-1.5219097 -0.91371369 0.5546701
-1.4397519 -0.84603941 0.5579772
-1.3297668 -0.8224479 0.50080001
-1.2037985 -0.80104578 0.43011928
-0.59165418 -0.57661313 0.19761436
-0.26798353 -0.44223467 0.089016467
0.080620944 -0.31304649 -0.042096764
0.15602612 -0.28097281 -0.066628158
0.46653575 -0.18156621 -0.19793823
0.53829986 -0.14494133 -0.2156913
0.66409129 -0.12496281 -0.28744799
0.72393847 -0.082394779 -0.29124582
0.83015084 -0.053352833 -0.3406913
0.89799041 -0.020218372 -0.35886759
0.99555135 0.038633764 -0.37481403
1.1354084 0.089342773 -0.42833385
1.164691 0.066931903 -0.47003439
1.4150929 0.16664809 -0.55836523
1.5089831 0.22800672 -0.57856852
1.694657 0.31646258 -0.65171921
1.7089643 0.27524573 -0.70314586
-2.2116249 -1.0945686 0.85164016
-2.1509528 -1.0790496 0.83020318
-2.027838 -0.99852389 0.81800473
-1.9293 -1.000998 0.75785577
-1.7364792 -0.89422321 0.71399462
-1.6147386 -0.85984123 0.66262722
-1.5274806 -0.86960208 0.59917212
-1.3756665 -0.76113415 0.57682538
-1.2708826 -0.77176505 0.5051527
-1.2048558 -0.69233656 0.51470876
-1.088954 -0.6964277 0.44402686
-1.0386646 -0.66589248 0.42952549
-0.94823205 -0.649382 0.38633084
-0.88388568 -0.5891974 0.38532355
-0.65954202 -0.54834008 0.27224961
-0.54154682 -0.47903234 0.24576272
-0.46570024 -0.47794563 0.19796053
-0.29500273 -0.40021616 0.14699155
-0.24939311 -0.36585122 0.13897133
-0.18898642 -0.34382191 0.1159351
-0.068959117 -0.27948904 0.079983503
0.30463547 -0.1790522 -0.085250556
0.35121858 -0.16485897 -0.10369045
0.48446172 -0.11618105 -0.15071502
0.53129959 -0.079346687 -0.1584979
0.76600891 -0.026476324 -0.27000552
1.0050181 0.082562625 -0.34467524
1.1075339 0.11909974 -0.38616729
1.1888323 0.14272165 -0.41825342
1.5035217 0.27864975 -0.53702903
-3.5743694 -1.5510316 1.5123221
-3.5372717 -1.4947373 1.455024
-3.4167953 -1.4772084 1.3869959
-1.3119283 -0.72695798 0.55778629
-0.61233515 -0.45360479 0.29917923
-0.35338786 -0.3765732 0.19182277
-0.22251207 -0.31290746 0.14960411
-0.1497792 -0.28449038 0.12259305
1.2465483 0.23718888 -0.40489531
-0.59756589 -1.1877103 -0.37789977
-0.56890643 -1.1188647 -0.36110055
-0.72471583 -1.136943 -0.24763188
-0.54793888 -1.063319 -0.30685765
-0.62769401 -1.0504992 -0.22664978
-0.817119 -0.8704381 0.07237649
-0.70220488 -0.88092709 0.062479474
-0.63911313 -0.83177674 -0.0051907673
-0.32612833 -0.75087363 -0.13461351
-0.10828805 -0.68779492 -0.21549146
-0.78265202 -0.91304708 0.1157539
-0.72974938 -0.846111 0.080912255
-0.40062225 -0.67619014 -0.018952295
-0.1888777 -0.59516472 -0.080087498
-0.13950777 -0.5743227 -0.098815203
-0.01218015 -0.54620731 -0.1359224
0.0378986 -0.51832104 -0.17417783
0.091515183 -0.50551599 -0.20333451
-3.1310003 -1.4513606 1.3862703
-3.2085476 -1.4169521 1.3921404
-0.54065251 -1.1922232 -0.34988469
-0.67274135 -1.2065326 -0.23408397
-0.56757408 -1.131719 -0.24630827
-0.62622219 -1.050878 -0.16908374
-0.56747007 -1.0792118 -0.18402059
-0.52930999 -1.0443733 -0.21874258
-0.56310201 -0.86423367 0.020467836
-0.57274705 -0.83550429 0.10176294
-0.52196169 -0.81981403 0.054650426
0.14521194 -0.60372746 -0.16342977
-0.45965603 -0.77394217 0.063668534
-0.30821303 -0.74016488 0.048864976
-0.23513579 -0.71633708 0.031690598
-0.19590402 -0.64531726 -0.033224478
0.062448204 -0.59366262 -0.10774025
-3.4478843 -1.5824785 1.5207274
-3.2852416 -1.5796399 1.5019485
-3.2583907 -1.5288618 1.4386343
-3.2985191 -1.5303609 1.5173311
-3.2132502 -1.4724066 1.4551094
-0.55106843 -1.1881092 -0.18761086
-0.527551 -1.124385 -0.16783996
-0.553994 -1.0731908 -0.056788996
-0.53548694 -0.99665302 -0.053892352
-0.49550492 -1.025749 -0.090237767
-0.60035086 -1.0077425 0.016652219
-0.50279546 -0.97224194 -0.015886478
-0.46847075 -0.90101206 0.028327294
-0.36151394 -0.87774682 0.01079949
-0.27841398 -0.86856771 -0.0068099201
0.060524285 -0.73167384 -0.12985602
-0.50972158 -0.89679074 0.13272606
-0.33802685 -0.78120011 0.084143415
-0.040161908 -0.68597353 0.0029934198
0.043523192 -0.67440677 -0.023820668
-3.3859739 -1.6171217 1.609115
-3.3404746 -1.6017414 1.595471
-0.58998603 -1.2727773 -0.21419212
-0.53792298 -1.2668839 -0.25294304
-0.46821102 -1.243916 -0.27322805
-0.62000215 -1.2193835 -0.12797172
-0.58474082 -1.2318894 -0.057161301
-0.48002368 -1.1434803 -0.12383738
-0.46641666 -1.0236857 0.0285239
-0.20187429 -0.8880282 0.0095308274
-0.19260538 -0.85179925 -0.031109691
0.0062454343 -0.77491033 -0.10386717
-0.63705629 -1.019595 0.21266294
-0.58465624 -0.99500012 0.17468676
-0.53594005 -0.95601875 0.21522555
0.14291036 -0.69308102 -0.10364696
-0.48771423 -0.88687509 0.16168961
-0.43610334 -0.90927839 0.18957862
-0.37086189 -0.87325382 0.16529037
-0.2779578 -0.81746542 0.12303227
0.11653191 -0.67532665 -0.046961606
-3.2876487 -1.6263212 1.626389
-0.6050756 -1.3281759 -0.13029389
-0.47247368 -1.317386 -0.2226842
-0.48497784 -1.2419084 -0.13664582
-0.70942122 -1.1355867 0.29009736
-0.5372858 -1.1028038 0.18805557
-0.18546101 -0.94465625 0.071602464
-0.13952434 -0.911461 0.032591254
-0.092159092 -0.90742028 0.026346341
0.044792175 -0.84865904 -0.012634501
-0.67770708 -1.080602 0.29402381
-0.61848742 -1.0289257 0.26296228
-0.5576393 -1.0191932 0.23367891
-0.49677899 -1.0391884 0.20809145
-0.36562997 -0.98977351 0.17225243
-0.35833675 -0.90582013 0.19662635
-0.23421073 -0.87633574 0.18111859
-0.1965102 -0.8656491 0.17336738
0.20789057 -0.99884301 -0.20194617
0.33994919 -0.88879108 -0.19905967
0.46008587 -0.87653494 -0.2788966
0.34681028 -0.86628371 -0.1550107
0.50119388 -0.81753087 -0.20670569
-0.65012789 -1.1668211 0.24840419
-0.070221961 -0.96404058 0.088676527
-0.00016021729 -0.90292108 0.031092092
-0.60408503 -1.1089447 0.32074714
-0.38253611 -1.0351999 0.19099002
-0.29874733 -0.97623354 0.15127581
-0.4198103 -0.97639579 0.25259697
0.047051013 -0.83515441 0.13140219
0.37271708 -1.1002195 -0.3060784
0.13613683 -1.1459042 -0.18878984
0.20710015 -1.1161599 -0.18754414
0.10539269 -1.1038351 -0.11094955
0.45620924 -0.96237034 -0.25062075
0.46609217 -0.98253024 -0.27823108
0.11377448 -1.0197645 -0.078448057
0.15723199 -1.0406708 -0.11994332
0.42886162 -0.92563653 -0.18005657
0.55115974 -0.89407945 -0.26707888
0.098188519 -1.0411739 -0.029741645
0.20772177 -0.96975446 -0.063628793
0.52900529 -0.851502 -0.16128352
0.62959111 -0.80146456 -0.24596652
-0.069584846 -0.9899497 0.11713909
0.20500487 -0.93532789 0.020204782
0.24145132 -0.92918074 -0.034589767
0.44782877 -0.83082676 -0.075109214
0.50766629 -0.81487864 -0.084725469
0.57772613 -0.79101282 -0.15141749
0.65419418 -0.78634501 -0.17734772
-0.47954571 -1.1441486 0.32980505
-0.30943197 -1.0831721 0.23686148
-0.24658784 -1.0619813 0.20698667
0.11762536 -0.88502157 0.06794247
-0.44352353 -1.1052923 0.36423773
-0.24555761 -0.97377616 0.27074915
-0.1497964 -0.97103792 0.27449289
-0.055583477 -0.91580468 0.22345445
0.13140345 -0.86818695 0.13369021
0.22166741 -1.1871694 -0.2202079
0.37470835 -1.1458428 -0.29030025
0.24687737 -1.1820426 -0.18816444
0.46729302 -1.0817773 -0.29789641
0.57406366 -1.0214139 -0.31434363
-0.10471731 -1.2412567 0.016409129
0.087325633 -1.1425747 -0.10721344
0.42478889 -1.0006154 -0.21629804
0.52553582 -1.0103939 -0.20166743
-0.13329184 -1.2089599 0.047486827
-0.048125356 -1.1413686 0.019274309
0.51155353 -0.96644509 -0.16275376
0.038741827 -1.1268166 0.063898936
0.2597816 -1.019316 0.010548174
0.49742937 -0.91872519 -0.15461117
0.24262458 -0.96432024 0.015315145
0.6014868 -0.81683189 -0.11031225
-0.43929201 -1.1693939 0.35250002
-0.27249822 -1.1000123 0.25207072
0.26712018 -0.92941785 0.11604729
0.37261081 -0.89669925 0.039249003
0.4315837 -0.8920846 0.028718382
0.47199076 -0.85244703 -0.012710899
0.56990331 -0.83093357 -0.035740048
0.61981481 -0.8137114 -0.068018109
-0.45890594 -1.1637416 0.4129988
-0.31948817 -1.0876161 0.36741415
-0.29196021 -1.0564864 0.34216273
-0.22651321 -1.0232071 0.31816661
-0.084476262 -0.9859423 0.2903702
0.016221762 -0.96893841 0.26797074
0.13335222 -0.92858791 0.18894988
0.49724373 -1.1777859 -0.28810912
0.033859432 -1.2878897 -0.014461875
0.1056425 -1.2290578 -0.097500131
0.18882623 -1.2346646 -0.12539619
0.45532376 -1.1074321 -0.22234783
0.54206198 -1.0994576 -0.27267072
0.59657043 -1.0733256 -0.30367622
-0.17565724 -1.2963418 0.070340551
0.48032188 -1.0192719 -0.10515118
-0.21559185 -1.2882738 0.20444205
-0.083305538 -1.2038054 0.16883479
0.0042152405 -1.1655058 0.08643125
0.16209155 -1.1138923 0.066973507
-0.43178988 -1.2708291 0.38593617
-0.3827399 -1.2417264 0.33181584
-0.28856194 -1.2075078 0.29026681
-0.22064784 -1.1806041 0.26252222
-0.16730732 -1.1594516 0.24087247
0.13036507 -1.0527828 0.085870773
0.15302634 -1.02839 0.11478651
0.25623643 -1.0087265 0.06099382
0.3558062 -0.95810664 0.019718677
0.42353001 -0.95750356 -0.016082138
0.56788307 -0.88408726 -0.055480957
