ply
format ascii 1.0
comment PCL generated
element vertex 1423
property float x
property float y
property float z
element face 0
element camera 0
property float view_px
property float view_py
property float view_pz
property float x_axisx
property float x_axisy
property float x_axisz
property float y_axisx
property float y_axisy
property float y_axisz
property float z_axisx
property float z_axisy
property float z_axisz
property float focal
property float scalex
property float scaley
property float centerx
property float centery
property int viewportx
property int viewporty
property float k1
property float k2
end_header
-2.3225577 -0.52136791 -0.019602641
-2.1535559 -0.51770711 -0.047413114
3.3774307 -0.4992384 -0.0025044631
3.4381433 -0.53412032 0.0095694819
-2.7007875 -0.46758243 0.050740134
-2.5250931 -0.44638556 0.024159746
-2.3799438 -0.43809336 0.0045094471
3.3118048 -0.43982759 0.014935889
-2.7473161 -0.40313482 0.075472973
-2.6395905 -0.38136849 0.064854637
-2.380425 -0.37059569 0.038098406
3.2439787 -0.38524503 0.050141867
-3.0353014 -0.32105783 0.095571376
-2.9526513 -0.32472649 0.10689586
-2.8596337 -0.36903474 0.10752158
-2.7918503 -0.33283463 0.12667578
-2.7402458 -0.33125877 0.085378475
-2.5694568 -0.30908361 0.098908737
-2.4925551 -0.31430051 0.10200849
-2.160259 -0.29581594 0.074653275
3.0833478 -0.31205609 0.065038256
3.1347489 -0.32149434 0.08683379
-2.6753633 -0.30551603 0.14185297
-2.4471266 -0.27510691 0.15256649
-2.4047642 -0.29485503 0.11379935
-2.3343782 -0.2692503 0.14531168
-1.9726901 -0.23982891 0.14724243
-0.20789462 -0.22067423 0.11768868
1.0349053 -0.22062986 0.11642031
2.8007135 -0.23995161 0.11292164
2.920115 -0.25096521 0.13530131
-1.7125975 -0.22426687 0.15659936
-1.5451992 -0.22071376 0.15788086
-1.4497019 -0.21745293 0.16991282
-1.3688036 -0.21570635 0.17795493
-1.2063057 -0.21313427 0.18623345
-1.1696054 -0.21315914 0.18390577
-0.75669706 -0.2189011 0.13297532
-0.57670391 -0.21360268 0.17215261
-0.52054584 -0.2198146 0.12514757
-0.26960787 -0.2104658 0.19517355
0.53000498 -0.22022267 0.1189057
0.99359691 -0.21394929 0.16542608
1.4159958 -0.21302173 0.17076345
1.5905029 -0.21841784 0.12964268
1.6481038 -0.21913999 0.12413911
2.0785947 -0.21203816 0.17679897
2.198499 -0.21537682 0.15107353
2.44519 -0.2083485 0.20371157
2.4783001 -0.21612984 0.14460355
2.5385003 -0.21635513 0.14204207
-0.41718376 -0.91525 -0.16021223
0.0063281432 -0.9466573 -0.15506402
0.30132687 -0.94049072 -0.1655087
0.45402756 -0.94422871 -0.15890828
0.49862659 -0.93936205 -0.16730408
0.74242473 -0.92996663 -0.18338443
0.82112807 -0.94728112 -0.1533217
0.96532643 -0.93887538 -0.1677683
1.3529129 -0.9074257 -0.16062869
-0.96932173 -0.83487844 -0.11006726
-0.7950182 -0.84664381 -0.10094381
-0.69312286 -0.82561541 -0.13269345
-0.58159864 -0.88361859 -0.14153287
0.17900094 -0.87613577 -0.16368216
1.7450851 -0.85863233 -0.090713456
1.9132774 -0.83386183 -0.10968829
2.0218797 -0.84114873 -0.10397662
2.4047804 -0.84428084 -0.10143983
2.5164788 -0.83859843 -0.10579304
2.6337774 -0.83540344 -0.10523222
-1.4464437 -0.77982336 -0.11022011
-1.18593 -0.81265318 -0.11534254
0.45566058 -0.80044293 -0.079152092
1.8733658 -0.79773355 -0.13270681
1.9100648 -0.79528338 -0.13372143
2.4527729 -0.81942189 -0.12046553
2.5031662 -0.79945725 -0.1318095
2.5415676 -0.80339342 -0.13015993
2.792562 -0.78995758 -0.12762901
3.0142641 -0.80083257 -0.1106075
3.0952594 -0.79158992 -0.10355008
-1.8866793 -0.70403677 -0.065043285
0.25404161 -0.75165999 -0.08341784
0.31814337 -0.76073223 -0.06764736
3.3331285 -0.71932507 -0.084728695
-2.1226845 -0.70698661 -0.009912502
-2.0688982 -0.66399974 -0.041337237
3.5424898 -0.64723045 -0.00042047634
-2.5562375 -0.58821791 0.035016723
-2.3874099 -0.65449166 0.025149774
-2.2968171 -0.62735462 -0.0061902739
3.4947822 -0.62250799 -0.019687472
-2.4741421 -0.57033098 0.013694998
-3.06639 -0.4831039 0.12414636
-2.9451888 -0.47698951 0.092446178
-2.6501718 -0.50331658 0.03807646
3.4176097 -0.47650197 0.097267471
-3.1368036 -0.45480797 0.14267969
-2.8785067 -0.42994764 0.085413493
-2.7410212 -0.41279426 0.15002716
-2.5552206 -0.40710154 0.12431123
-2.9741323 -0.37744254 0.12519659
-2.8441277 -0.39356074 0.13862486
-2.8207407 -0.37237382 0.1777532
-2.7269478 -0.34471875 0.144518
-2.6350424 -0.36812836 0.17694983
-2.563947 -0.3499023 0.15363133
-2.4608388 -0.37423992 0.16647521
3.2163491 -0.33646917 0.13545033
3.2838557 -0.36596096 0.18100083
-3.0815663 -0.3174209 0.20695968
-2.9530745 -0.29699752 0.20718698
-2.7797756 -0.28758937 0.18592611
-2.7054796 -0.27934864 0.19171327
3.0880239 -0.28472292 0.17272079
3.1450312 -0.30242702 0.17323396
-2.7509873 -0.26971817 0.22360197
-2.6550403 -0.26416093 0.23095529
-2.4978998 -0.24916188 0.26060861
-2.0956979 -0.2349667 0.19613156
-1.8916034 -0.22288591 0.20077217
-1.8108045 -0.21993852 0.20073234
-1.5661101 -0.21260546 0.22283383
-1.3713126 -0.21021459 0.23585351
-1.0592093 -0.20948425 0.2048346
-1.0095106 -0.20846975 0.21291953
-0.81811345 -0.20974097 0.24068326
-0.50881284 -0.20805253 0.22880691
0.67198682 -0.20753016 0.22886051
0.84938884 -0.20780921 0.21228407
1.1376867 -0.20730375 0.22824621
1.4225392 -0.20800571 0.20898893
2.3015895 -0.20803335 0.20644973
2.848197 -0.22885767 0.21376666
2.8976004 -0.23685648 0.21226184
-1.4962133 -0.21242911 0.24879107
-1.2470138 -0.21169002 0.2501134
-0.86991441 -0.21159665 0.25485888
-0.79181528 -0.21316674 0.26664469
-0.59681386 -0.21001279 0.24373446
-0.2587139 -0.21000426 0.24439423
0.5742836 -0.21407157 0.27832353
0.77798522 -0.21074386 0.25331891
0.88598454 -0.21185499 0.26213327
1.0145831 -0.21452259 0.28286323
1.1993848 -0.21103562 0.25656709
1.3353851 -0.21043079 0.25262889
1.5073831 -0.21394183 0.28025663
1.6371838 -0.21261872 0.27026784
1.6849833 -0.21357375 0.27756262
1.773185 -0.21029575 0.2533505
1.8482836 -0.21277781 0.27211517
2.1796837 -0.21223487 0.26904303
2.5471852 -0.20939554 0.24881843
-0.37537634 -0.94771075 -0.11313952
-0.088168621 -0.96324128 -0.12640762
0.040933043 -0.97193766 -0.11123572
0.16363117 -0.96239072 -0.12767686
0.17901567 -0.93311352 -0.095770627
0.28633106 -0.97743624 -0.076103762
0.35132295 -0.9601751 -0.066148356
0.56322956 -0.95463264 -0.14079401
0.68193334 -0.9742806 -0.1066559
0.89603412 -0.97849399 -0.099182099
0.96143007 -0.95752263 -0.13546358
1.3024299 -0.97411066 -0.079840437
-1.1706147 -0.86170977 -0.07934659
-1.0532985 -0.91365474 -0.040064231
-0.9965055 -0.88739437 -0.069712758
-0.69880867 -0.87750596 -0.077201389
-0.64449823 -0.91533732 -0.0376174
0.2879965 -0.90373117 -0.033563364
0.45569378 -0.88396347 -0.077478692
1.4334083 -0.92277038 -0.069562599
1.5243872 -0.86581433 -0.085250705
1.6720001 -0.91038179 -0.042521946
1.7397965 -0.89572257 -0.061663855
2.5657933 -0.88585937 -0.06887994
2.6385982 -0.90518397 -0.044941548
2.7165461 -0.88915187 -0.079456761
2.7767868 -0.86706406 -0.076067373
2.9805839 -0.86272293 -0.068619765
-1.7495399 -0.81545132 -0.022331644
-1.4358681 -0.86084652 -0.052551147
0.209868 -0.83601069 -0.021428313
0.36816117 -0.82834911 0.0099361511
0.44637591 -0.85975695 -0.0082003921
2.6659815 -0.8655799 -0.036518838
2.7172778 -0.86294472 -0.015837118
2.9331732 -0.84169054 -0.049085651
3.2066727 -0.84632236 -0.028235653
3.3346765 -0.86155611 -0.01014004
-2.0314586 -0.78146148 0.022373052
-1.9179484 -0.80252486 0.0075475071
-1.8408455 -0.80488259 -0.010910227
0.42244896 -0.78968382 -0.017401688
2.7168272 -0.74286944 0.0079755168
2.8549273 -0.74536067 0.014604426
2.8973408 -0.77224433 -0.0089991633
2.9809408 -0.77273053 -0.009289166
3.0583506 -0.79331255 -0.02117724
3.1376271 -0.74609739 0.016110353
-2.2517867 -0.7137121 0.030441826
3.5884213 -0.73192185 0.018122079
-2.5929224 -0.63409561 0.062461808
3.5983922 -0.66402519 0.033524122
-3.1868875 -0.50098628 0.16383332
-3.2949107 -0.4504056 0.18853626
-3.2517884 -0.5065406 0.18880734
3.3996937 -0.46109137 0.17907777
-3.4311278 -0.42252818 0.2375481
3.3435733 -0.42308006 0.22399996
-3.2546556 -0.34796241 0.22052582
3.1998329 -0.32389015 0.22826917
-3.2692797 -0.31336021 0.3061963
-3.2396777 -0.31195521 0.28518176
-2.9074976 -0.26952097 0.31275389
-2.6863017 -0.25971776 0.31215233
-2.1892083 -0.23323363 0.27727234
2.8882954 -0.24191861 0.27203658
3.0818624 -0.28710356 0.27676344
-2.526006 -0.25528646 0.33201113
-2.1115122 -0.23548405 0.31874311
-1.8916171 -0.23337162 0.35116994
-1.7308183 -0.22517198 0.33429331
-1.4845167 -0.21907032 0.29991615
-1.4007171 -0.21944423 0.30523306
-1.0688186 -0.22502394 0.33557457
-0.8913179 -0.2227599 0.32179371
-0.67081821 -0.22967756 0.34716117
-0.57681906 -0.22219402 0.32907045
0.60838121 -0.21885201 0.31424007
0.86768252 -0.21596587 0.29324639
1.012081 -0.22691119 0.34233424
1.0815815 -0.21785535 0.30829641
1.2529817 -0.23199092 0.35473165
1.3200806 -0.22433157 0.3365145
1.8815806 -0.21903662 0.31999469
2.2625806 -0.21847387 0.31692842
2.4935806 -0.22636849 0.34259677
2.5493801 -0.21913974 0.3225159
2.6247838 -0.23645209 0.35177201
2.7776873 -0.23615164 0.31936821
2.8606913 -0.25147018 0.33857453
2.7087214 -1.1721684 -0.18265018
2.7686694 -1.18357 -0.12763907
-0.486671 -0.99322361 -0.0047681835
-0.33366895 -0.98087484 -0.064048111
-0.22676417 -0.99468887 -0.057831466
-0.16136284 -0.99628741 -0.063610777
-0.091810375 -1.0058279 -0.052325554
0.18114322 -1.0244694 -0.020106215
0.4295375 -0.99527675 -0.07048323
1.0780369 -0.99281782 -0.074217044
1.2046368 -0.99333388 -0.072219886
1.3557283 -0.98373288 -0.032518897
-1.432507 -0.90310913 -0.0040306593
-1.3389995 -0.92736512 0.014865431
-1.1250988 -0.91612411 -0.029242592
-0.97549343 -0.93461704 -0.01268415
-0.65049064 -0.94630009 0.0028203013
-0.57348549 -0.94700772 -0.038700987
1.4223156 -0.95234394 -0.031035893
1.673508 -0.94293773 -0.0001181299
1.8108051 -0.93078321 -0.015864125
1.9346554 -0.93238646 -0.013685946
2.1862102 -0.95162654 0.011551297
2.3822081 -0.94445032 0.0022777088
2.5049078 -0.94352818 0.0011797296
2.8509569 -0.94483668 0.016030701
2.9248991 -0.91668183 -0.015585996
3.1045923 -0.89977932 -0.01531831
-1.6001158 -0.88972902 0.024262926
-1.5399163 -0.87913823 -0.0070405439
2.7121832 -0.88582695 0.017602747
3.2358859 -0.8859995 -0.0058787158
3.4607682 -0.84972781 0.019880479
-2.0771601 -0.78380525 0.041000184
2.6651444 -0.80077356 0.055845227
3.0320351 -0.78703016 0.086944103
3.2109575 -0.82639277 0.030259455
3.5156574 -0.8222177 0.019472389
3.5448573 -0.82853651 0.040646236
-2.4664884 -0.73676914 0.12222766
-2.3481848 -0.73010904 0.070175231
-2.2334716 -0.76373488 0.072114766
-2.8051722 -0.65854239 0.14455473
-2.6448131 -0.67045397 0.10440885
-2.5971024 -0.70310086 0.12620294
-3.0143406 -0.62600583 0.18933614
-2.9491837 -0.63880503 0.17495613
-2.8951316 -0.636298 0.14805131
3.5472312 -0.55245703 0.17285827
-3.3754013 -0.48695716 0.23089461
3.410295 -0.47832313 0.22674602
-3.4830267 -0.43635145 0.27425894
-3.4478145 -0.4733111 0.29691356
-3.4852619 -0.36187252 0.32105666
-3.3497725 -0.33060902 0.30340844
3.2001307 -0.34297195 0.31274202
-3.3778741 -0.33863041 0.34588999
-3.1878865 -0.31611562 0.37445086
-2.9416993 -0.27786398 0.35158667
3.0262072 -0.30712917 0.38933221
-3.0993013 -0.28820467 0.40498304
-2.778506 -0.26455212 0.36606383
-2.3387122 -0.24605063 0.35336992
-2.0845146 -0.24494612 0.37106717
-1.9606143 -0.24916299 0.38247472
-1.6939145 -0.26030707 0.42000347
-1.5362149 -0.25652102 0.41097125
-1.3197156 -0.25061834 0.39691922
-1.1026157 -0.25080818 0.39782447
-0.77421737 -0.23715147 0.36502758
-0.75281596 -0.24918833 0.39410168
-0.5129149 -0.25915802 0.41857138
-0.44151524 -0.25603309 0.41101468
0.48298299 -0.24267793 0.37982428
0.74388373 -0.24980614 0.39738747
0.85928309 -0.24419387 0.38375646
1.0922824 -0.23908786 0.37189835
1.3258836 -0.25097644 0.40068787
1.5093834 -0.24938655 0.39708197
1.648982 -0.23712194 0.36754394
1.7121818 -0.2348036 0.36217818
1.9190322 -0.24024862 0.37558094
2.0614319 -0.23673199 0.36720315
2.241183 -0.24685071 0.39188221
2.7488902 -0.26756445 0.40157658
2.8349915 -0.26200062 0.37060171
-2.8686404 -0.1930937 0.41482279
-2.7522347 -0.20224524 0.3963652
-2.6517401 -0.18967231 0.39806852
-2.5306559 -0.15636301 0.41947392
-2.0618389 -0.20329523 0.43355295
-2.026437 -0.21113914 0.4465718
-2.8501263 -0.11656827 0.4563913
-2.7509794 -0.10711179 0.45439094
-2.6434841 -0.097471453 0.45798022
-2.3323693 -0.13270961 0.45227033
-2.2346678 -0.13956194 0.4626216
-3.0162108 -0.047622468 0.51554334
-2.8363087 -0.046670597 0.49563587
-2.7510941 -0.076295815 0.47321627
-2.6688969 -0.070316561 0.47492617
-2.4540086 -0.048893839 0.50019836
-2.3860099 -0.047605816 0.50982463
-3.0464411 0.01635919 0.55489987
-2.9463561 -0.019007159 0.52196789
-2.8314426 0.025959831 0.53744024
-2.5848789 -0.0033119312 0.51994038
-2.5499353 0.008959895 0.53071427
-2.4260273 -0.011355836 0.53040534
-2.3831308 -0.0052841227 0.54152536
-2.4738634 0.064783566 0.57909018
-3.138799 0.13719322 0.6357367
-2.9689934 0.13143612 0.6088407
-2.8351738 0.092120789 0.57724345
-2.7059772 0.099274397 0.58135784
-2.5062869 0.11390244 0.61038822
-2.9167111 0.17044856 0.62731063
-2.8210282 0.2071894 0.64735115
-2.551506 0.15549514 0.63411075
-2.5045288 0.19937837 0.67594469
-3.1033397 0.22651652 0.67805082
-2.644551 0.25063789 0.68984324
-2.7950654 0.28497371 0.69824719
-3.273315 0.38095483 0.79122347
-3.1966009 0.35480216 0.76238036
-2.9035039 0.36665916 0.74667609
-2.7617908 0.3370775 0.73662961
-3.0615323 0.42576572 0.7857734
-2.9049242 0.40931967 0.77418536
-2.8437569 0.47560781 0.82502347
-3.1804886 0.54377466 0.86348158
-3.1674266 0.62540931 0.90909648
-2.9365067 0.58136326 0.88907504
2.7309258 -1.2126327 -0.082117699
2.773217 -1.1899544 -0.084966816
2.7269826 -1.1095409 -0.066490777
-0.54286933 -1.0186588 0.066460796
-0.42506263 -1.0250483 0.031816117
0.051645026 -1.0336192 -0.0043587293
0.27094978 -1.0583756 0.038712058
0.49904728 -1.0457374 0.017000262
0.58044344 -1.0260593 -0.017027484
0.79364568 -1.0377712 0.0034376089
0.93444788 -1.0495121 0.023894073
1.138846 -1.0406824 0.0087617505
1.3946307 -1.0144426 0.051126804
2.726536 -1.0107137 -0.0080647711
-1.4409993 -0.93819636 0.049152214
-1.2582922 -0.95950687 0.06061684
-1.0370855 -0.97478735 0.056564186
-0.86118621 -0.96987253 0.044890821
-0.65978563 -0.97523135 0.057939813
0.19591686 -0.98902911 0.082440205
1.5576146 -0.98320675 0.079759493
1.9555126 -0.96670252 0.040285107
2.0125635 -0.97337234 0.056288399
2.274714 -0.97720379 0.065940134
2.5284123 -0.96532011 0.037554912
2.5769131 -0.97348017 0.058933914
2.6652086 -0.9659214 0.071715385
2.7778578 -0.95758915 0.052669249
3.0135059 -0.95252466 0.046386652
3.0526042 -0.94491839 0.037840832
-1.8939326 -0.86410475 0.080651492
-1.7500194 -0.90677941 0.11269612
-1.5342041 -0.93852949 0.090363182
0.21799505 -0.94246781 0.10931166
0.2488758 -0.90140277 0.13300987
0.37869054 -0.93287653 0.11482947
3.2109814 -0.89587373 0.06382107
3.2987418 -0.92483079 0.072153106
3.5129719 -0.88767064 0.11666913
-2.2071609 -0.80359721 0.11699548
-2.0110419 -0.85242891 0.12054095
2.7892385 -0.80397344 0.11610256
2.9890432 -0.82963753 0.16072999
3.1807387 -0.80556637 0.11918037
-2.3805761 -0.77539182 0.14980528
-2.2732656 -0.80480742 0.1584477
-2.2169602 -0.81761408 0.15647644
-2.775512 -0.69943076 0.19611695
-3.296375 -0.56468171 0.27210152
-3.26057 -0.57607019 0.26725629
3.4187381 -0.52723581 0.30916423
-3.4014502 -0.4070636 0.37301591
-3.3489654 -0.38131139 0.41466051
-3.2821667 -0.38293707 0.43253487
-3.0348854 -0.33775738 0.43687698
2.9618111 -0.33481416 0.4494493
-3.0624957 -0.30347204 0.40805948
-2.7693021 -0.30198145 0.45772699
-2.7065139 -0.27879328 0.47941673
-2.5064983 -0.31494784 0.46880293
-2.187607 -0.29414919 0.47303566
-2.1015136 -0.27672032 0.46911469
-1.7756113 -0.27340597 0.43843108
-1.7223114 -0.27348465 0.43861061
-1.4882063 -0.29433444 0.46592265
-1.1653074 -0.29046309 0.46107775
-1.0991118 -0.27221227 0.43731225
-0.86371249 -0.26968551 0.43412575
-0.79601103 -0.27593315 0.44240472
-0.51890612 -0.29589272 0.46860927
-0.38061059 -0.27789962 0.4451488
-0.21770532 -0.29951438 0.4735283
-0.033304676 -0.30225974 0.4772343
0.48708713 -0.26934507 0.43463263
0.65489542 -0.30304408 0.47855183
0.69318974 -0.28005263 0.44875056
0.76468521 -0.26149973 0.42446604
1.1520394 -0.27930754 0.44803229
1.4171872 -0.27043253 0.43667173
1.5532939 -0.29788285 0.47253945
2.3964944 -0.3001647 0.47597724
2.4685924 -0.29270148 0.46630594
2.8458009 -0.30863842 0.44921389
-3.1234426 -0.2019161 0.46090862
-3.0568457 -0.19873773 0.47786102
-2.990839 -0.21603189 0.47907162
-2.6423192 -0.26905808 0.48860776
-2.4860218 -0.26398265 0.49394429
-2.4186358 -0.23158891 0.50408942
-2.3492465 -0.20605275 0.50831342
-2.2595229 -0.25831366 0.4861066
-2.1494405 -0.21381372 0.48291314
-3.1444588 -0.1666275 0.4789694
-2.9944625 -0.16629003 0.50951362
-2.9012632 -0.16803077 0.52200747
-2.6796637 -0.17199579 0.53585857
-2.595058 -0.18413082 0.53034616
-2.504251 -0.19896452 0.52131253
-2.4656641 -0.16916777 0.53273302
-2.1700659 -0.15487729 0.49661082
-3.1528909 -0.098181136 0.52047706
-3.0544958 -0.093590885 0.54374444
-2.9012015 -0.086758196 0.56983948
-2.7681916 -0.11041785 0.56632942
-2.5685978 -0.097083293 0.57319516
-2.4820912 -0.11025574 0.56107968
-2.3144829 -0.12339 0.53616095
-2.2457948 -0.093859129 0.53726405
-3.0083244 -0.035029747 0.58735335
-2.7916219 -0.045231741 0.60170424
-2.6396179 -0.054486629 0.59755784
-2.4650118 -0.064268209 0.58103925
-2.3056316 -0.0138417 0.57721978
-2.9938481 0.015168678 0.62001967
-2.9270575 0.033115391 0.63799101
-2.8617556 0.02776425 0.63951361
-2.6970372 -0.012710495 0.62075263
-2.6549561 0.028153321 0.64040774
-2.5200922 0.0010084475 0.61693168
-2.3939495 0.021260837 0.60915148
-3.1525881 0.10610572 0.64977807
-3.1122873 0.10262612 0.65503925
-2.8887236 0.066841185 0.66010797
-2.7803662 0.050158273 0.65439254
-2.6940792 0.078218065 0.6674608
-2.5056791 0.082627289 0.65197259
-3.1875014 0.13579981 0.66091669
-3.0267143 0.15614888 0.70000786
-2.9561017 0.12755486 0.690193
-2.8699057 0.13516682 0.69907975
-2.8145146 0.15481265 0.71029711
-3.1123428 0.22007397 0.72721452
-2.9521277 0.18380238 0.7227726
-3.2131739 0.28979343 0.75257164
-2.9477818 0.29918796 0.78752214
-2.9001665 0.26599208 0.769858
-2.7873583 0.24980174 0.75819153
-2.6248832 0.30914909 0.76552457
-3.2017875 0.31774548 0.77216727
-3.1130023 0.34598953 0.80312264
-3.0099857 0.30871388 0.7903716
-2.8406019 0.34367236 0.80775863
-2.6986084 0.36197388 0.79937029
-3.068022 0.38671967 0.83101344
-2.9824197 0.38139346 0.83150899
-3.2998614 0.47885153 0.85304099
-3.1989686 0.48978448 0.87839097
-3.1527572 0.46421894 0.86871034
-3.0808573 0.46270102 0.87359917
-2.9208484 0.44365111 0.86212438
-2.8846619 0.47402996 0.87353468
-2.8271518 0.45381716 0.85758996
-2.8815153 0.59236586 0.92416918
-0.40905714 -1.0508318 0.072700515
-0.28724927 -1.0770224 0.094171464
-0.24924965 -1.0714574 0.078559048
-0.056345567 -1.0819513 0.079292893
0.28785321 -1.0760148 0.069287106
0.32435119 -1.0656027 0.051276743
0.43575367 -1.078505 0.073721729
0.52665544 -1.0877665 0.089841843
0.5606541 -1.0810045 0.078153625
0.77905619 -1.0916647 0.096800558
1.3516456 -1.0712137 0.11604498
-1.2897918 -0.98592412 0.14617059
-1.2154886 -0.98224896 0.10625563
-1.0368836 -1.0016044 0.12993345
1.4273282 -1.0206238 0.092469938
1.6099162 -0.99727434 0.11377748
1.6952155 -1.000895 0.13292296
1.7716153 -0.98867393 0.093206406
2.3282163 -0.99855351 0.11757711
2.4067149 -1.0012009 0.13763148
2.5461159 -0.99909335 0.12209038
2.8898098 -0.99292511 0.15309176
2.9533098 -0.98660874 0.12959689
3.1506026 -0.96210921 0.10711408
-1.5758055 -0.95135778 0.14606325
-1.5433049 -0.96023458 0.17107153
-1.4284974 -0.97691464 0.16385604
0.45570171 -0.96999085 0.14558785
2.6657994 -0.95939207 0.12801875
3.3733869 -0.92789268 0.12602976
-2.1292517 -0.85006809 0.19477279
2.7726009 -0.85849696 0.19865277
2.8447049 -0.86678177 0.18935998
2.9903624 -0.88833463 0.1975137
3.2052581 -0.87387139 0.18713269
-2.4274795 -0.78837997 0.22048134
-2.3175702 -0.8133601 0.22764239
3.6291416 -0.83117104 0.18171072
-2.76021 -0.7190764 0.24597071
-2.988338 -0.6697014 0.31467471
-2.8769276 -0.69712228 0.31846401
-2.778219 -0.71767771 0.31674948
-2.6831088 -0.73925471 0.30139861
3.5977654 -0.67187208 0.28797457
-3.1271551 -0.62868744 0.32011956
-3.1092634 -0.62261963 0.37003511
-3.2090862 -0.57411194 0.39873642
-3.1453731 -0.60376781 0.38715485
-3.2941022 -0.53747141 0.40800139
-3.4124408 -0.44238615 0.41440165
-3.291625 -0.48935288 0.43866032
3.1869502 -0.43292981 0.45098674
-3.0781736 -0.37361547 0.45855969
-2.863483 -0.35269284 0.46749419
-2.8285847 -0.34772125 0.46551037
-2.6473782 -0.37349001 0.4953005
-2.467175 -0.3859342 0.51280648
2.9828234 -0.37738624 0.48941824
3.0880358 -0.40346992 0.47308159
3.1434352 -0.39101467 0.43754357
-2.1641903 -0.34371713 0.49892145
-2.0834932 -0.33653525 0.49774635
-2.0230412 -0.34313717 0.50553292
-1.8774887 -0.35543048 0.52364951
-1.6649007 -0.31734464 0.49584404
-1.2382016 -0.31391829 0.49165437
-1.1233891 -0.35669586 0.53045505
-1.0673032 -0.30728865 0.4831073
-0.79179555 -0.33619162 0.5150035
-0.54709685 -0.33196208 0.51187515
0.013696507 -0.30714273 0.48353213
0.24190742 -0.34625712 0.52327985
0.34729695 -0.30924189 0.48643973
0.41039619 -0.30616096 0.4825533
0.45951077 -0.35734543 0.53186548
1.0077046 -0.33758751 0.51688266
1.4310991 -0.31833872 0.49907973
1.5528047 -0.33845231 0.51782328
1.6643976 -0.31289366 0.49203566
1.7076018 -0.32904422 0.51065075
1.7748978 -0.31387249 0.49342117
1.8971056 -0.34112674 0.51993585
1.9705095 -0.35425198 0.53013313
2.0801957 -0.3058795 0.48322126
2.4571037 -0.335365 0.51580906
-0.13603957 -1.1143628 0.13818459
0.25296128 -1.1174692 0.14108197
0.38735849 -1.1034186 0.11684731
0.53686035 -1.1129566 0.13349403
0.66366124 -1.1180047 0.14234322
1.0162588 -1.1058165 0.12151232
1.0674093 -1.1085953 0.12636849
1.1772629 -1.1289241 0.16507955
1.2932539 -1.0944557 0.12445902
-0.70828652 -1.007268 0.17362042
-0.57986295 -1.0740708 0.19924557
1.8681118 -1.0078287 0.18628587
2.1127117 -1.0075372 0.18457927
2.2427123 -1.0065513 0.17797522
2.3655114 -1.0079135 0.18883686
-1.6694161 -0.94345134 0.2079059
-1.3623984 -0.98864406 0.21203819
-1.192793 -1.0024953 0.2125688
-0.92228919 -1.0126649 0.21440466
-0.74679232 -1.0115628 0.23684326
1.5322105 -1.0168527 0.22845417
2.4491088 -1.0118811 0.22498596
2.4938068 -1.0103264 0.23673165
2.6631072 -1.0081911 0.22616805
3.0207055 -0.98855209 0.17222752
3.1940935 -0.96956396 0.21168639
-1.9010345 -0.90508366 0.23446418
3.5219569 -0.88354045 0.22954825
-2.140857 -0.8561849 0.26017395
-2.0033464 -0.88404524 0.26474586
3.5345283 -0.83216673 0.29718512
-2.3503928 -0.79615402 0.35904208
3.4691052 -0.79326332 0.36155888
3.5679579 -0.78255868 0.30318341
-2.76843 -0.70656013 0.37131244
-2.6382077 -0.74653214 0.3162443
3.4704769 -0.72682548 0.3750807
-2.8052497 -0.67207694 0.42216295
-2.9799697 -0.6243881 0.42961702
-2.4574909 -0.57185161 0.43043849
3.3124139 -0.59458822 0.46031278
-3.015605 -0.5510757 0.47920898
-2.9346993 -0.56074613 0.46368873
-2.8972077 -0.54235882 0.4736045
-2.6343114 -0.52861774 0.4554117
-2.5920093 -0.54577875 0.4953813
-2.5129094 -0.53626043 0.46715146
-2.428792 -0.58422953 0.4817144
-3.1250303 -0.48648435 0.47343469
-2.7367456 -0.46156144 0.51998961
-2.570642 -0.47532326 0.53396565
3.1307623 -0.4804002 0.50938207
-2.5912702 -0.39719713 0.51001453
-2.4332552 -0.44277862 0.53720456
-2.3816154 -0.41557682 0.53032637
-2.2681727 -0.39679164 0.52937889
-1.8649693 -0.41516268 0.5613355
-1.799276 -0.39649227 0.55524695
-1.6724762 -0.39723495 0.55803692
-1.3876765 -0.39684492 0.56019294
-1.2140679 -0.42285046 0.57518369
-0.57847619 -0.39894041 0.56328022
-0.32616955 -0.41908377 0.57517987
-0.25897726 -0.39552727 0.5608269
0.01802507 -0.40325654 0.56684166
1.2722267 -0.40897548 0.57136703
1.4036241 -0.40087298 0.56563723
2.2588248 -0.40410271 0.56852663
-1.4869841 -0.37186816 0.54044348
-1.2803804 -0.38475701 0.55133957
-0.89758343 -0.37531117 0.54508698
-0.34847984 -0.38724986 0.55441469
-0.069381103 -0.38324314 0.5515002
0.075412124 -0.36139417 0.53476745
0.66712081 -0.38980564 0.55686682
1.4009156 -0.37330878 0.5444839
1.4718118 -0.36088553 0.53501987
1.5985132 -0.36581275 0.53885859
1.7386209 -0.39059648 0.55790663
2.129014 -0.36864927 0.54120308
2.463419 -0.38504201 0.55387264
-0.3597469 -1.1157708 0.20505732
-0.16603833 -1.1272806 0.17114362
0.20415697 -1.1200206 0.18597236
0.48772824 -1.1392908 0.21155435
0.98916149 -1.1392624 0.21224573
1.0332614 -1.1393714 0.21287063
0.17902923 -1.0594751 0.21578252
1.4358211 -1.0520108 0.25828287
-1.0236036 -1.0029891 0.30238223
-0.71425033 -1.0054187 0.28333744
-0.62120372 -1.0028067 0.30319294
0.179003 -1.0087811 0.26588258
1.5225978 -1.0036288 0.29035446
1.6921 -1.005291 0.27736819
1.7689995 -1.0047679 0.28112534
1.9200013 -1.0061961 0.26971933
2.1803 -1.0053253 0.27602354
2.2848935 -1.0003697 0.31293306
2.7594924 -0.99472475 0.30493826
-1.6687273 -0.94064182 0.2926594
-1.5312256 -0.95688528 0.33291695
-1.3680182 -0.97511649 0.33322945
-0.58990741 -0.9999963 0.32455531
0.35653305 -0.96526963 0.28676185
0.45569181 -0.99734187 0.32100525
3.0686831 -0.97287387 0.30874032
3.1752682 -0.94325256 0.33552366
3.3064597 -0.91880155 0.32387358
-1.8922602 -0.88253886 0.37425175
-1.7873513 -0.90297443 0.3683337
-2.1386859 -0.823874 0.39543846
3.3158193 -0.8434127 0.41091385
3.3864188 -0.83421797 0.38503835
-2.3793108 -0.76741523 0.41385019
-2.2073967 -0.80246019 0.41369417
3.4124751 -0.73265177 0.40913382
-2.435029 -0.73116535 0.44592088
3.3025451 -0.67886239 0.48048785
-2.8426733 -0.62585527 0.4632777
3.2469127 -0.60194683 0.49521419
-3.0254953 -0.59523755 0.54551268
-2.7958906 -0.59111494 0.49394602
-2.6684487 -0.58402044 0.53456992
-2.4363399 -0.60128176 0.51915443
-2.3433869 -0.61537594 0.54154885
3.1748848 -0.53822505 0.5161826
-2.2683418 -0.48273247 0.5572505
-2.1284368 -0.49860665 0.56966394
-2.0531163 -0.55304182 0.58141947
-1.9300317 -0.51669705 0.58656466
-1.7705269 -0.53141367 0.59698844
-1.6960315 -0.52101976 0.5982452
-0.600739 -0.50611204 0.61111426
2.9650617 -0.49477521 0.56275994
-1.8114582 -0.44706962 0.57605112
-1.6193553 -0.45686203 0.58377105
-1.3480482 -0.47836727 0.59684533
-1.2143416 -0.49796465 0.60630226
-1.1054468 -0.48332492 0.60123074
-0.98234779 -0.48095351 0.60062283
-0.90823954 -0.50430936 0.61034185
-0.7932027 -0.46684283 0.59483278
-0.68206251 -0.43893337 0.58327603
-0.49734235 -0.49656525 0.60726047
-0.26615497 -0.46058658 0.59232301
0.046958819 -0.50011241 0.60884684
0.28793424 -0.43023264 0.57999134
0.34405318 -0.48418772 0.60230207
0.57694024 -0.44738877 0.58714503
0.65214026 -0.44749525 0.58719069
0.75064111 -0.45002797 0.58825791
0.84104812 -0.46988565 0.59653038
0.92114788 -0.46925721 0.59630674
1.0501462 -0.4647944 0.59448063
1.5702829 -0.47489136 0.59879357
1.6904448 -0.46090993 0.59307152
1.7806338 -0.42977211 0.58020526
1.8992394 -0.4459402 0.58690917
2.2799983 -0.47155887 0.59759694
2.394351 -0.47868305 0.60063082
-0.12344218 -1.1429873 0.25640509
0.017860614 -1.1473199 0.24742265
0.08606039 -1.1487099 0.25388688
0.44155958 -1.151929 0.27115563
0.6546548 -1.1449939 0.28771967
-0.44496846 -1.0873135 0.29111469
-0.3920742 -1.0824542 0.32254773
-0.20336205 -1.1135585 0.32477975
0.15994528 -1.1311128 0.32188118
0.2642352 -1.1112654 0.3397907
0.42354101 -1.1222632 0.32776758
0.69845039 -1.1386062 0.30329409
0.93254733 -1.1340437 0.31398344
1.1093458 -1.128648 0.30737913
1.1755298 -1.0933007 0.32280841
-0.48790279 -1.0163361 0.34074533
-0.26827472 -1.088276 0.3465381
0.034603305 -1.0387789 0.36445004
0.40341315 -1.0641541 0.36650458
1.3985033 -1.0319424 0.34110951
-1.4386275 -0.95946491 0.35866645
-1.2875242 -0.96890992 0.3625505
-1.1280259 -0.97133559 0.38468671
-1.0660208 -0.98050004 0.37280893
-0.98842031 -0.98137814 0.37079248
-0.87291157 -0.99401248 0.34016412
-0.46302587 -0.9732126 0.38987911
0.18969083 -1.0049273 0.35533652
0.26829627 -1.0282055 0.38773018
0.32778993 -1.000523 0.34781787
0.44327548 -0.97704446 0.39045238
0.47757357 -0.97468352 0.39839247
0.59356862 -0.96118718 0.39450765
1.2128695 -0.96412134 0.39609304
1.2862351 -1.000827 0.38933194
1.4066691 -0.96600783 0.40572032
1.5252768 -0.97727895 0.37853405
1.5739722 -0.97067946 0.39434561
1.6231835 -0.98711479 0.3545455
1.7859776 -0.97839016 0.37566975
1.9753772 -0.97772497 0.37707159
2.0695853 -0.98938549 0.34873968
2.1319821 -0.98517472 0.35889891
2.9527764 -0.96881038 0.35081723
-1.7205056 -0.90083778 0.39819375
-1.5032369 -0.94211429 0.37896416
-1.1826321 -0.96075964 0.40072662
-1.107442 -0.94644755 0.43680492
-1.0434351 -0.95970869 0.42302436
1.4856634 -0.95732802 0.42515391
1.8213584 -0.94842404 0.43660572
1.9867675 -0.96378773 0.4107469
2.2363672 -0.96313512 0.41201922
2.4612677 -0.96379447 0.41034338
2.6937673 -0.96099156 0.40327552
2.8019471 -0.92447406 0.45031902
-2.0110836 -0.83754718 0.42263255
-1.8143777 -0.85949373 0.44481283
-1.700871 -0.87666547 0.44504955
-1.5213645 -0.89608806 0.45564142
3.130017 -0.85478473 0.46787468
3.2444317 -0.87531734 0.41352126
-2.0872998 -0.80429709 0.44518059
-1.9828992 -0.81140822 0.46438763
-1.6920993 -0.82431954 0.50839859
3.0902944 -0.81152612 0.51132065
3.20138 -0.77136791 0.49684608
3.2528999 -0.81039244 0.4620775
-1.9415365 -0.73990172 0.53717554
-1.8012267 -0.7651121 0.54015917
3.1638591 -0.72781616 0.52718288
3.2457588 -0.71837693 0.50029266
-2.2156196 -0.65782595 0.54018337
-2.0851529 -0.69983023 0.53924817
-1.8418688 -0.67247754 0.58127558
-1.6547714 -0.6701833 0.59585679
3.067625 -0.65262276 0.5606637
3.1399446 -0.6947428 0.53807694
-3.0987947 -0.62073809 0.62744367
-2.937202 -0.60079467 0.61982751
-2.7907944 -0.60092312 0.55975491
-2.5848825 -0.63412064 0.56862819
-1.9806039 -0.58471572 0.58414394
-1.8983006 -0.59546465 0.59063143
-1.5731884 -0.63058782 0.60553843
-1.3698601 -0.62102365 0.61553884
-0.94910163 -0.60311669 0.62386423
-0.66579038 -0.63071764 0.62210363
-0.16319492 -0.62002927 0.62359792
0.24080884 -0.62928885 0.62236482
1.0289968 -0.59992993 0.62374979
1.8624053 -0.62099123 0.62350821
2.2598996 -0.60729337 0.62490392
2.6424074 -0.62489402 0.61730021
-1.5972208 -0.54981226 0.60540092
-1.4903296 -0.52759528 0.60620397
-1.4156147 -0.56701481 0.61334807
-1.2639208 -0.55260557 0.61391187
-1.1457118 -0.57624602 0.61895865
-0.92531878 -0.55812442 0.6178472
-0.81971788 -0.560794 0.61825734
-0.71633422 -0.51853174 0.61273402
-0.58550733 -0.58856219 0.62194788
-0.31462222 -0.54984432 0.61690015
0.0039857253 -0.57057905 0.61967587
0.073975094 -0.54296243 0.61609465
0.18946525 -0.51739973 0.61270839
0.28796265 -0.51063395 0.61186856
0.4086836 -0.56518 0.61905193
0.56357718 -0.54863673 0.61692125
0.79476488 -0.51652461 0.61268377
0.95327854 -0.55217892 0.61737329
1.2275833 -0.56498897 0.61918581
1.2954731 -0.53831595 0.61563754
1.3984773 -0.54938221 0.61709017
1.6287825 -0.56265628 0.61887074
1.7722661 -0.52024138 0.61331546
1.856271 -0.53299105 0.61506873
1.9544722 -0.53620332 0.61551297
2.0929825 -0.56310356 0.61902231
2.1717927 -0.59021431 0.622648
2.3886769 -0.54853958 0.61723453
2.4318655 -0.51898468 0.61327404
2.6082816 -0.55958515 0.61464494
0.37283552 -1.1169485 0.35612679
0.6310389 -1.1218901 0.34389329
0.70388174 -1.1086196 0.35956907
0.87463486 -1.1138716 0.35080329
-0.098277844 -1.0891894 0.37566522
0.085263819 -1.0747579 0.39702117
0.18600875 -1.0651617 0.40728262
0.27151442 -1.0749626 0.39272568
0.31432834 -1.1033289 0.37069097
0.49092853 -1.1040729 0.37122321
0.6366775 -1.1068165 0.3895981
0.90481436 -1.0751557 0.39277411
1.1351142 -1.0709366 0.37924975
1.2064091 -1.0575784 0.37736851
-0.23480317 -1.0345467 0.40490967
-0.15616351 -1.0131782 0.4200629
0.077894419 -1.0395674 0.44186863
0.28144115 -1.0243231 0.41762251
0.34249604 -1.0319599 0.40229681
0.41748762 -1.0198538 0.43219468
0.6455965 -1.0392549 0.42218378
0.80937719 -0.99805003 0.44594777
0.95719349 -1.0322812 0.42455739
1.1386961 -1.0430549 0.43736982
1.1914911 -1.0203902 0.40414548
-0.32025519 -0.92372459 0.46969101
-0.14194527 -0.94156224 0.44632846
0.025065042 -0.9688412 0.45111722
0.045547139 -0.92794478 0.46409678
0.45717683 -1.0074357 0.48132783
0.72146392 -0.96959078 0.46238354
0.93331689 -0.9726932 0.4479261
1.2507519 -0.93884212 0.45975024
1.6834434 -0.92138082 0.4718582
2.1965556 -0.94374752 0.44261119
2.2793503 -0.93385893 0.4553524
2.8433428 -0.91586047 0.45863429
-1.3962843 -0.86300373 0.51224768
-1.3105645 -0.90164775 0.47584745
-1.1834725 -0.89001846 0.50321287
-0.77266306 -0.90948713 0.48846614
-0.58766246 -0.91057217 0.48689547
-0.38936868 -0.89935505 0.50142974
-0.31068128 -0.8742615 0.52283198
-0.20376033 -0.91445208 0.48172659
-0.16167477 -0.88746101 0.51271439
-0.037175722 -0.88563734 0.51415706
0.049318634 -0.8741675 0.52296126
0.12382624 -0.88964021 0.51102054
0.2785334 -0.90320796 0.49624458
0.61521769 -0.87230891 0.52420145
0.90052605 -0.88932949 0.51111281
1.1325321 -0.90111434 0.49851173
1.2521244 -0.88623416 0.51343709
1.3323244 -0.88611555 0.51349658
1.5204297 -0.89688903 0.50390893
1.5640378 -0.91141331 0.4848986
1.6193281 -0.89401168 0.50740588
1.9888819 -0.90071654 0.49731749
2.3984208 -0.87913692 0.51867497
2.5152199 -0.8770749 0.52019846
2.5416286 -0.89477855 0.50628263
2.7718225 -0.87911487 0.50513685
3.0071242 -0.87673414 0.48119855
-1.1811119 -0.81028348 0.56551349
-1.1136922 -0.85109544 0.53825569
-0.96498972 -0.85670906 0.53649992
-0.88238579 -0.86489689 0.53014839
-0.64429075 -0.85491192 0.53784764
-0.28600606 -0.82380027 0.56165278
0.020588763 -0.8133049 0.56952345
0.46999952 -0.83531624 0.55261207
0.54661167 -0.85996169 0.53376037
0.91470021 -0.83680713 0.55135524
1.1229986 -0.83359599 0.55376261
1.2270076 -0.85206145 0.53962934
1.4351077 -0.85189164 0.53970402
1.8644127 -0.86230242 0.53168416
2.0617037 -0.84427273 0.54541665
2.2418878 -0.81203318 0.57012373
2.5169897 -0.8157804 0.56723726
2.6523433 -0.82149601 0.55624509
2.808696 -0.8246578 0.5446462
2.8606026 -0.83689785 0.5316872
3.0030837 -0.79328984 0.53986788
-1.7437321 -0.75612003 0.55423313
-1.6740395 -0.7415958 0.56653392
-1.3593372 -0.75228721 0.58411294
-1.263433 -0.76287621 0.58353263
-1.230413 -0.80726147 0.56483865
-0.76581657 -0.80155063 0.57512581
-0.6725378 -0.75408 0.5947783
-0.54832864 -0.77462059 0.58625716
-0.40611488 -0.80520755 0.57355201
0.28608385 -0.80261552 0.57462412
0.65227431 -0.78156888 0.58326668
1.0464728 -0.7783531 0.58461678
1.1317701 -0.77246267 0.58708334
1.4827778 -0.78930318 0.58003742
1.5640218 -0.77604735 0.58554316
1.7059861 -0.80830014 0.57222301
1.7738745 -0.78217286 0.58302331
1.8938799 -0.79414725 0.5780614
1.970675 -0.78349328 0.58247006
2.0812619 -0.75415421 0.59454197
2.2393618 -0.75422752 0.5945974
2.2721803 -0.79574144 0.5773297
2.5555756 -0.78494143 0.58145314
2.6651628 -0.75426239 0.5876019
2.8825562 -0.73598415 0.58011526
2.8993831 -0.79547268 0.5531677
-1.5344478 -0.72590208 0.58446681
-1.4685462 -0.73113674 0.58778852
-1.3296667 -0.68543702 0.60814565
-1.2229484 -0.72863197 0.59925175
-1.0032682 -0.68397176 0.61507422
-0.86716384 -0.69469607 0.61366081
-0.77164251 -0.74366957 0.59906602
-0.59496921 -0.68176299 0.61537957
-0.48144513 -0.73787045 0.60145688
-0.4007723 -0.67439616 0.61637682
-0.27565038 -0.72624874 0.60629416
-0.21645565 -0.71332234 0.60705149
-0.11654811 -0.73138511 0.60412002
-0.03996627 -0.6890533 0.61445796
0.20985404 -0.73619473 0.60211563
0.34544051 -0.70513266 0.61102259
0.42905405 -0.73623699 0.60206664
0.62224513 -0.71652877 0.61018711
0.67633682 -0.69681203 0.61347872
0.74463677 -0.69669801 0.61353678
0.88362736 -0.67410558 0.61651587
1.3022447 -0.71449375 0.60701334
1.3542457 -0.71719646 0.60723722
1.5036445 -0.7154333 0.61060512
1.5595354 -0.69361365 0.61395562
1.8218516 -0.73117924 0.60413677
2.09354 -0.70465016 0.61260611
2.2099905 -0.70613408 0.6108706
2.300343 -0.71185654 0.61165649
2.6625352 -0.69159865 0.60725904
-3.1099954 -0.63836855 0.69358891
-3.0396988 -0.61584044 0.64481193
-2.9044845 -0.64792293 0.63309181
-0.52117425 -0.6697337 0.61700296
0.27291697 -0.64878803 0.61976635
0.56302464 -0.66734111 0.61733866
0.71351731 -0.64972776 0.61975187
0.79611641 -0.64759928 0.619932
2.3772097 -0.63176894 0.62219477
0.27943164 -1.5736175 0.24265961
0.32120532 -1.5101043 0.25067878
0.13917895 -1.4548012 0.28654423
0.33922368 -1.4430636 0.29127592
0.24564725 -1.38636 0.32268631
0.034707591 -1.0749081 0.45005235
0.13631618 -1.1093764 0.49365035
0.23081854 -1.1020511 0.44902775
0.5774318 -1.1354172 0.44970563
0.81773639 -1.149018 0.45626128
0.036811456 -1.1035001 0.5137952
0.11689938 -1.0657375 0.48824263
0.49637607 -1.0101547 0.49707317
0.73036957 -0.99888039 0.51313752
0.78706861 -0.99617577 0.51249844
0.92127162 -1.0082182 0.52747047
0.98747331 -1.0066456 0.50839585
1.0488776 -1.0159614 0.50278121
-2.6431866 -0.67750007 0.74796343
-2.7027009 -0.62975669 0.71040624
0.31882736 -1.5776123 0.29242259
0.1581997 -1.522386 0.33944106
0.27938047 -1.4785645 0.35363582
0.22733282 -1.3651887 0.37301016
0.27524734 -1.4073848 0.39304507
0.33194548 -1.3959692 0.37001175
0.27892447 -1.1358083 0.51255518
0.25209415 -1.0772024 0.57063073
0.3180021 -1.0901746 0.54754895
1.0513011 -1.0998496 0.58691233
0.38478604 -1.056654 0.5695442
0.53458214 -1.0595703 0.61252767
0.6126802 -1.0579451 0.62257832
0.69217414 -1.0253371 0.56414634
0.96248186 -1.054369 0.59666157
-3.0110846 -0.68705499 0.76361924
-2.8599768 -0.72160518 0.81640142
-2.7984769 -0.7044661 0.75955021
-2.8610973 -0.66863567 0.81054616
-2.7459989 -0.65535575 0.77772892
0.2559846 -1.5105432 0.42662644
0.29055905 -1.4496018 0.43639496
0.24601337 -1.3562579 0.50678641
0.28598776 -1.2891556 0.49638283
0.3243075 -1.336681 0.49013531
0.20117205 -1.2605438 0.53236145
0.30987078 -1.2586639 0.5364942
0.34813684 -1.183658 0.56990916
0.45613599 -1.1889298 0.59433413
0.53853935 -1.202606 0.61229467
0.92393309 -1.1875638 0.61435211
0.27765802 -1.1327045 0.6410076
0.48308605 -1.0779362 0.64130545
0.80458194 -1.0772505 0.67318594
0.89138681 -1.0923525 0.68281806
-2.9973941 -0.69645196 0.87573355
-2.9475944 -0.69606292 0.87930083
0.20336843 -1.5902168 0.41008943
0.26442751 -1.6091462 0.3974252
0.34032664 -1.6088572 0.40358746
0.16477823 -1.503616 0.45696011
0.1679652 -1.4946678 0.53648138
0.31155527 -1.4590399 0.49987534
0.31047738 -1.2952309 0.60435128
0.59444338 -1.228199 0.66448432
0.62804186 -1.2124301 0.62358719
0.85323948 -1.2069267 0.62523741
0.098525412 -1.1903366 0.68870234
0.16562811 -1.1920722 0.67175943
0.20750606 -1.1503638 0.71695715
1.0003154 -1.1578451 0.66174716
0.29049787 -1.1168108 0.67269444
0.3194994 -1.1361017 0.72494519
0.39699513 -1.1246599 0.72218812
0.51138955 -1.1071981 0.71043146
0.96349466 -1.1154196 0.69443589
-2.9192431 -0.71640581 0.9352743
0.14381513 -1.6059271 0.49097291
0.295838 -1.6555804 0.46529916
0.27989095 -1.55225 0.51350981
-0.028957538 -1.2528821 0.75595474
0.16836143 -1.2935362 0.73292994
0.56974667 -1.2590994 0.74040663
0.63424671 -1.2522331 0.71745998
0.67954803 -1.2596735 0.73128802
0.83274162 -1.2464045 0.74043012
0.015424013 -1.2073767 0.75796741
0.094916165 -1.1831905 0.74253327
0.16177176 -1.1966758 0.74074638
0.21783625 -1.2357285 0.75024039
0.36183199 -1.2286769 0.76214558
0.38699824 -1.1446505 0.76341695
0.51149529 -1.1466855 0.79525036
0.5508945 -1.1468841 0.80182797
0.99284303 -1.4843751 0.6881569
1.1440089 -1.407836 0.71730632
1.2812278 -1.4491074 0.69670308
1.1423904 -1.3720163 0.75206679
1.312091 -1.3758545 0.76045507
0.027564719 -1.3079352 0.75396216
0.6596514 -1.2914885 0.80979931
0.76074743 -1.270776 0.77359527
0.06237828 -1.2365582 0.82026786
0.32594186 -1.2596681 0.78340358
0.43243438 -1.2366788 0.76906532
0.29100597 -1.1761358 0.80448681
0.79030073 -1.1800596 0.86180186
1.1413066 -1.6461573 0.69671601
0.87768662 -1.5995409 0.7087568
0.94957811 -1.585188 0.73215836
0.83765221 -1.5262492 0.75117898
1.240649 -1.5155454 0.7427634
1.2522627 -1.5461046 0.72870362
0.8610664 -1.4392414 0.75988656
0.9068349 -1.4819288 0.74846369
1.2043684 -1.4504735 0.78182644
1.3521327 -1.4773569 0.75070614
0.82391077 -1.4373499 0.80098963
0.95519829 -1.4056114 0.79931879
1.3103912 -1.3946093 0.82075441
1.4440985 -1.3998381 0.77731019
0.6422528 -1.3043342 0.84164387
0.93546563 -1.3421561 0.86100078
0.98822826 -1.364045 0.82775134
1.2160608 -1.3282603 0.85455698
1.2773592 -1.3284781 0.86758691
1.3695699 -1.3450023 0.83367693
1.4474767 -1.3646953 0.84285402
0.15814047 -1.2880462 0.89104855
0.35964775 -1.2993116 0.8673203
0.4321498 -1.3029963 0.86276066
0.85818481 -1.2623328 0.85096711
0.19081971 -1.2464195 0.9255777
0.43980449 -1.1990502 0.89412034
0.52410477 -1.2128236 0.93765688
0.64245158 -1.1994302 0.91904885
0.85351294 -1.2247232 0.90892971
0.95071024 -1.6646461 0.72959495
1.1230677 -1.681935 0.72358048
0.96380091 -1.6525213 0.76661158
1.2281007 -1.6437886 0.7392931
1.3474873 -1.6149681 0.75447094
0.56456059 -1.5639149 0.80821437
0.80796367 -1.5566385 0.75719637
1.1889522 -1.5314457 0.76926959
1.269954 -1.5533719 0.82772928
0.53914142 -1.517585 0.81394345
0.64572811 -1.4826741 0.8077563
1.2585293 -1.4962013 0.84329337
0.71211404 -1.4686188 0.87948024
0.96019709 -1.4320999 0.89902902
1.2586112 -1.4472295 0.83126265
0.96107727 -1.3772467 0.88080955
1.3683686 -1.3572491 0.88630193
0.17794397 -1.3097844 0.93472922
0.38175032 -1.3156466 0.90084118
0.95984077 -1.3119867 0.96858621
1.0896518 -1.3308452 0.93875134
1.1468543 -1.3415293 0.95370781
1.2093526 -1.3287143 0.92455381
1.3106536 -1.3359877 0.94083875
1.3712573 -1.3417947 0.92974442
0.14192632 -1.278141 0.97689748
0.30511588 -1.2520767 0.97668189
0.34801263 -1.2384788 0.95825809
0.42470923 -1.2294545 0.95658821
0.57170719 -1.2323891 0.98339683
0.67380953 -1.2440286 1.0026461
0.81711888 -1.2589542 0.97380972
1.2204306 -1.7326944 0.78669918
0.68258703 -1.643472 0.85372818
0.79309028 -1.6347852 0.79695791
0.87430108 -1.6657813 0.81011766
1.1836897 -1.6362563 0.80622536
1.2800018 -1.6640775 0.79789299
1.3471023 -1.6621698 0.78744036
0.4658635 -1.5803744 0.83925241
1.1944314 -1.5165516 0.89390391
0.38772589 -1.5149332 0.93545532
0.54391009 -1.4762094 0.93850595
0.66152024 -1.4888107 0.89461869
0.82431173 -1.4784981 0.93149596
0.1406692 -1.390519 0.99435979
0.2117244 -1.3936576 0.96084636
0.32007581 -1.395727 0.95611805
0.39817548 -1.3943596 0.95401233
0.45947519 -1.3932121 0.9524737
0.80948597 -1.4100628 0.9175384
0.82757115 -1.3811768 0.94552374
0.94338071 -1.4027488 0.93808258
1.0616766 -1.3908335 0.93143737
1.1338871 -1.416335 0.92946899
1.2984761 -1.3912978 0.93743557
1.3404757 -1.3991791 0.96832848
1.4076722 -1.3848065 0.94948304
0.021242514 -1.3251073 0.99875891
0.054283153 -1.3464609 1.0091765
0.11195922 -1.3702314 1.0099982
0.20985544 -1.3580905 1.0009454
0.29655394 -1.3599284 1.0195035
0.38115019 -1.3460994 1.0046145
0.42025411 -1.3514858 0.98983961
0.49885696 -1.352962 0.97038949
0.72665572 -1.3485725 0.96596968
0.74684745 -1.347134 1.0311096
0.93315846 -1.3520175 0.95420194
1.0224559 -1.3589511 0.99839497
1.2325522 -1.357216 1.023966
1.2866565 -1.3633145 1.0079701
1.3461616 -1.3639729 0.96774942
0.055134643 -1.3057615 0.99987584
0.37337416 -1.291296 1.0387866
0.47712094 -1.2826257 1.0368515
0.60142225 -1.2870874 1.0403818
0.70271492 -1.2681969 1.0383418
0.80173099 -1.2975576 1.0018716
0.9168219 -1.7396103 0.88365459
1.0844302 -1.7555579 0.8668108
1.2261311 -1.7550898 0.85771292
0.82730252 -1.6979551 0.90603274
0.9944132 -1.7106475 0.8591429
1.194201 -1.6865314 0.87973642
1.2803023 -1.6925421 0.88942015
1.3732057 -1.6988868 0.88228399
1.4333104 -1.702719 0.85616487
0.67518061 -1.6458251 0.91541255
1.2594641 -1.6044289 0.91378057
0.57036012 -1.6044962 0.94874603
1.2785482 -1.5721858 0.93995106
0.4665232 -1.5118926 0.94805479
0.61197239 -1.5175626 0.97340029
0.70701802 -1.5132445 0.99620306
0.81531149 -1.4903296 0.97339284
1.2736291 -1.4210018 1.0120854
1.3363805 -1.4203614 0.99882376
1.4296453 -1.4675876 1.0332119
0.19785285 -1.3729106 1.0725232
0.41915998 -1.387762 1.0624257
0.47716904 -1.3946148 1.008931
0.59116393 -1.3839564 1.0157627
0.95856589 -1.3940438 1.033338
1.0880532 -1.3663265 1.0464348
1.1657593 -1.3781765 1.0346216
0.23652774 -1.3200507 1.1057992
0.65903193 -1.3209051 1.0728142
0.70322245 -1.304901 1.0991344
0.77113521 -1.3227918 1.0519688
1.3624223 -1.7456149 0.89942098
0.94981456 -1.7386086 0.94195956
1.0183173 -1.746734 0.94569075
1.2326133 -1.7430077 0.96721506
1.3073961 -1.6884975 0.92904532
0.8546865 -1.6712226 0.95095944
0.90168929 -1.6795599 0.95584065
1.1905662 -1.6312269 0.98636049
1.2472724 -1.6548297 1.0142974
1.3324769 -1.6580787 0.98758841
1.4403815 -1.6712594 0.99370855
0.95206213 -1.6322359 1.0255234
1.1960492 -1.6027162 1.0339898
1.3812523 -1.608911 1.02947
1.4462497 -1.6068487 1.0433538
0.82212883 -1.5495607 1.0266097
1.2391354 -1.5716318 1.0463841
1.2906218 -1.5389968 1.0508971
1.3902328 -1.5650147 1.0446441
1.1596909 -1.4762332 1.0986834
1.2193464 -1.4830575 1.0746475
1.3797929 -1.4750835 1.0783662
0.14565228 -1.3812231 1.1054872
0.22385657 -1.395406 1.1169208
0.25966007 -1.4136777 1.1492069
0.34576127 -1.4085876 1.1216533
0.52496529 -1.4220604 1.133139
0.017046072 -1.3712969 1.1243932
0.12883641 -1.3488891 1.1302707
0.56032038 -1.3146523 1.1495211
0.88749188 -1.6994832 1.00115
1.0317971 -1.7154816 1.0111817
1.1288378 -1.6997077 1.0353429
0.90834516 -1.6052879 1.0772212
0.98595339 -1.6264888 1.0794086
1.0722489 -1.6186606 1.0899212
1.275412 -1.6471524 1.0759361
1.3516631 -1.647702 1.0680476
1.3976701 -1.65912 1.048059
0.95512545 -1.5605971 1.09285
1.1217284 -1.5717129 1.1045426
1.2987425 -1.6036891 1.0935723
-0.00064972043 -1.4069835 1.2092139
0.090641804 -1.3892223 1.2207251
0.1269588 -1.431324 1.2192824
0.30672967 -1.3603294 1.2252536
0.62803286 -1.3761634 1.2509478
0.39112836 -1.3670515 1.2587737
0.56172943 -1.3720517 1.2663754
0.27181801 -1.4708378 1.2748579
0.044958688 -1.4493484 1.2810514
0.17303783 -1.3935893 1.2687672
0.61750877 -1.4473854 1.2731143
0.30668283 -1.3904083 1.2999731
0.40973109 -1.3923049 1.3207469
0.56093305 -1.392988 1.3062494
0.38307428 -1.5071994 1.344149
0.40167227 -1.4890906 1.299986
0.49487105 -1.4835981 1.2919458
0.0065515712 -1.4504451 1.3447347
0.16986862 -1.4927193 1.3432937
0.61204118 -1.4196666 1.3279084
0.16874245 -1.4416406 1.391826
0.23683788 -1.4195023 1.3555253
0.47543642 -1.4282063 1.3970056
0.58134073 -1.4283803 1.3609847
-0.028735898 -1.5042336 1.4204949
0.0302651 -1.4967213 1.3867222
0.56215274 -1.4762527 1.4211068
0.29798919 -1.446201 1.4344401
0.43483689 -1.435694 1.4181477
-0.08382304 -1.5497738 1.4657447
0.05878504 -1.5662701 1.4530323
0.11677524 -1.5505346 1.4824291
0.29417932 -1.5561142 1.4668347
0.43597689 -1.5540177 1.4799211
0.20264566 -1.4845418 1.5091937
0.3717429 -1.481905 1.5231664
0.52995247 -1.4923507 1.4779783
-0.050805897 -1.599839 1.489899
0.13839658 -1.604503 1.4845303
-0.090535201 -1.5457569 1.5546019
-0.035133652 -1.5368284 1.5113709
0.062268537 -1.5436931 1.5159421
0.25108182 -1.580646 1.5283072
0.33658338 -1.5892 1.5437971
0.44997522 -1.5601785 1.5148122
0.50746059 -1.5240426 1.5162652
0.1115519 -1.5180809 1.5696295
0.46805376 -1.5243992 1.5750643
-0.043724269 -1.5873108 1.6024299
0.21758452 -1.605847 1.5905471
0.3916806 -1.5987829 1.5994542
0.19305015 -1.524205 1.6051115
0.25475159 -1.5454229 1.6643287
0.39085233 -1.5364666 1.6279167
-0.047018223 -1.6300226 1.695433
0.23838666 -1.6212533 1.624258
-0.13022402 -1.6099936 1.6768672
0.41937333 -1.5999469 1.6647078
0.14039189 -1.6730713 1.7549675
0.29158917 -1.651807 1.7061449
-0.0096350089 -1.6048739 1.7519141
0.20585674 -1.5826539 1.7462989
0.085891522 -1.6770974 1.771701
-0.1219162 -1.661055 1.7829463
0.33428425 -1.6602716 1.7759578
0.16669646 -1.708223 1.8348962
-0.099826306 -1.6562583 1.8518715
-0.013930745 -1.6497538 1.8672779
0.06759458 -1.7030721 1.8334929
0.26186597 -1.6399447 1.8617086
0.040867858 -1.6531311 1.8903775
0.24126905 -1.6616263 1.9086596
-0.15296485 -1.7115608 1.9419429
0.038100626 -1.7542148 1.9548856
0.20074704 -1.736244 1.924482
-0.23610631 -1.7561824 2.0202863
-0.024699114 -1.764527 1.9875048
0.2136952 -1.7500761 1.9864662
-0.2144042 -1.7800854 2.0829232
0.072805196 -1.8056375 2.0896184
0.02337838 -1.7430216 2.1045194
0.16428402 -1.7592442 2.111536
-0.29999655 -1.8062965 2.1070611
