ply
format ascii 1.0
comment PCL generated
element vertex 1540
property float x
property float y
property float z
element face 0
element camera 0
property float view_px
property float view_py
property float view_pz
property float x_axisx
property float x_axisy
property float x_axisz
property float y_axisx
property float y_axisy
property float y_axisz
property float z_axisx
property float z_axisy
property float z_axisz
property float focal
property float scalex
property float scaley
property float centerx
property float centery
property int viewportx
property int viewporty
property float k1
property float k2
end_header
-80.103584 -34.358879 126.61706
-76.545891 -34.111797 126.68378
110.36027 -34.455647 124.99752
111.60593 -36.55582 125.49648
-82.627342 -31.670975 124.45412
-80.075462 -30.901293 125.546
-75.68985 -30.83526 125.44645
-71.752617 -30.039951 125.80683
-68.53949 -29.461655 126.69299
109.88213 -31.39957 125.11415
-78.328255 -28.333652 123.68122
-74.988602 -26.224287 123.68505
-71.325935 -26.601297 123.98357
-67.742188 -26.309221 126.1937
-63.405304 -25.775515 126.65717
-59.812302 -25.285469 126.63642
110.51006 -28.45092 124.33492
111.53748 -27.031269 125.50747
-74.882133 -23.314339 124.23042
-71.642715 -23.641249 123.68886
-67.203049 -23.381096 124.72746
-63.339684 -22.523424 125.9209
-59.486919 -22.553955 126.70328
-55.449467 -21.985899 126.70805
-52.907845 -20.728085 126.71099
110.48681 -22.541306 124.9059
111.55747 -23.983528 126.28227
-61.931866 -20.015089 124.36684
-59.087254 -18.743282 125.28242
-55.296013 -18.424377 125.75797
-51.513306 -18.205494 126.26803
-47.575748 -17.430828 126.71711
110.22588 -19.089355 125.50533
-54.631187 -15.985299 123.70858
-50.780979 -15.770248 124.13421
-46.685909 -14.808708 124.96797
-43.415699 -13.425602 125.92177
-39.977074 -12.383334 126.72581
109.46557 -15.10762 125.29302
-42.04319 -11.134625 124.41555
-38.885582 -10.077697 125.25074
-35.257004 -9.4885283 126.00394
-32.164532 -8.8163204 126.73486
108.37567 -11.05832 125.2835
-36.955139 -8.0047865 123.72908
-33.873718 -7.3895493 124.4827
-30.726656 -6.1356444 125.84053
-26.506458 -5.9815278 126.32035
-23.677486 -5.3270502 126.74473
106.24216 -6.2561803 124.09966
107.60252 -7.3018556 125.90136
-30.398729 -3.0764637 124.18481
-26.094603 -2.4378889 124.65652
-22.518314 -1.9081798 126.32086
-18.968536 -0.80590063 126.75002
105.96001 -2.9964347 124.81576
107.24756 -1.189065 126.56717
-24.767265 0.5838896 123.74299
-22.041742 1.5503104 124.94617
-18.21208 1.9320047 126.01158
-14.132541 2.4222236 126.29212
-11.422448 2.7955301 126.75875
106.46111 0.19470379 124.2328
107.87373 1.7157552 125.99194
-20.506224 4.2268615 123.74781
-17.655426 5.1717181 124.14244
-14.190438 6.1133347 125.7552
-11.401556 7.8940792 126.75841
106.42023 6.209465 124.59898
107.54056 5.3368206 126.20038
-13.745706 9.4667816 124.45245
-9.9779482 9.8595848 125.08495
-6.0347157 10.536558 125.27743
-2.4573898 11.395117 126.51881
105.92937 9.5296488 125.37183
-8.1737347 12.375692 123.76192
-5.5051889 12.494904 123.76509
-1.3355255 14.017894 124.82259
2.3269196 14.460938 125.6854
6.0162673 14.712164 126.16577
105.13865 14.263318 125.57687
-0.94682091 18.027067 123.77013
2.3960311 18.211252 123.91696
6.5932775 18.205853 124.66146
10.391788 18.759035 125.40522
13.191579 20.008638 126.28686
102.72588 16.623205 124.72716
103.73366 17.858978 125.31598
2.7220924 20.743382 123.7743
6.5025973 20.807751 123.77881
11.209536 21.240089 123.99492
14.564699 22.316036 125.36726
17.197151 23.372683 126.79139
105.00555 21.893303 125.81924
16.013309 25.081438 124.37318
18.903404 25.872738 125.34879
22.997652 26.640444 125.40412
26.551941 26.470728 126.71535
101.51014 26.740061 124.66942
104.09097 25.153059 125.89484
24.33567 30.047726 124.03017
26.771255 30.8524 125.98407
31.853029 31.908407 126.03046
35.341728 31.429533 125.56242
39.291504 31.426458 126.26158
42.084145 32.268265 126.82041
98.105423 31.037457 124.13727
100.06624 29.648714 125.88971
27.987291 32.8778 124.60355
31.206396 33.456757 124.19444
35.133507 33.048031 123.81206
39.758423 33.577412 124.4842
43.607567 34.509392 125.08396
46.699154 35.324074 126.28723
44.809231 38.053509 123.82323
47.474037 38.921944 125.82635
49.916351 40.633915 126.82915
48.363121 42.448914 124.58578
51.740044 43.204514 125.40255
55.789997 42.639626 125.24625
59.411816 43.347229 125.98312
49.355473 44.937405 123.82816
50.819626 44.931404 123.8299
60.252949 46.685242 125.35715
62.541061 47.48032 126.8437
60.245068 50.810307 124.86703
63.259125 51.569923 126.55014
122.76781 -75.002548 130.92432
124.31462 -75.008888 130.92616
117.89741 -71.980354 128.2933
121.18784 -72.643051 129.38655
124.98068 -72.750931 129.06192
129.22339 -71.677574 129.5032
-125.44639 -66.535919 129.71477
-121.79707 -65.890404 130.29878
121.77131 -68.845108 128.92268
125.6047 -67.68116 130.02243
128.56538 -68.828438 129.8154
-124.52446 -63.949516 128.48587
-121.09045 -63.307579 129.30669
-117.2113 -62.373631 129.94168
-112.81043 -62.504795 129.93887
121.62685 -63.931538 129.67892
125.36393 -64.184067 129.16664
128.53421 -63.853889 129.52414
-120.36719 -60.468945 127.99057
-116.79862 -59.857513 128.54674
-112.27702 -59.116417 128.9287
-109.92048 -58.906097 130.2291
121.64079 -61.622074 129.86938
124.64301 -61.35611 130.50891
-111.43264 -56.060459 128.51877
-108.97422 -55.377998 129.32848
-104.79705 -55.088737 129.68863
-100.96678 -54.691349 130.06355
121.61742 -55.193707 129.61383
125.10463 -57.02935 129.23831
128.52809 -57.939835 129.59663
-108.04109 -52.450836 128.23579
-104.27361 -52.159676 128.46684
-100.35123 -51.213364 128.84029
-96.713211 -50.367897 129.77629
-92.95948 -49.830578 130.02248
117.90135 -51.681732 129.29182
119.75971 -53.748543 128.9192
-99.278526 -48.606213 127.90771
-96.081985 -47.745178 128.42146
-91.853851 -46.974854 129.10876
-89.916847 -45.186058 130.16864
116.91593 -47.874557 129.38205
-91.535004 -44.390717 127.89742
-87.957146 -42.902676 129.00414
-84.65654 -41.617844 130.10323
-80.03875 -41.334297 130.68011
-77.562759 -41.079273 130.68306
114.84214 -42.348274 128.57918
115.85456 -44.093727 129.61385
-86.660309 -40.70351 127.6722
-83.830444 -39.236843 128.8317
-79.818588 -38.776569 128.98576
-76.018295 -38.562099 129.53766
-73.243523 -37.549767 130.18796
113.94733 -39.731518 129.41127
-82.411087 -36.488991 127.67696
-79.567955 -36.077446 127.68032
-75.056351 -35.318184 128.29091
-72.265427 -34.506676 129.8764
-67.78978 -33.137951 130.00183
-64.536613 -33.089149 130.69801
112.61955 -35.631001 129.62367
-70.945908 -31.588743 128.19026
-67.313164 -30.513828 128.41675
-63.503601 -30.551376 129.46989
-60.047283 -29.558197 130.28644
111.85654 -31.503098 129.31995
-66.808533 -27.937923 127.69495
-63.385998 -27.811863 127.99312
-59.253902 -27.188532 128.82889
-55.316158 -26.112106 129.56564
-52.851822 -24.997755 130.21136
113.38949 -27.412992 129.40971
-60.285431 -22.070177 127.70229
-54.952171 -23.539547 127.77126
-51.610043 -22.458401 129.37933
-47.824768 -21.512781 130.13377
112.59035 -23.24659 129.44179
-50.497536 -19.899822 128.21381
-46.592541 -18.728178 128.94695
-43.272732 -16.861341 130.55553
-38.17329 -16.697687 130.72826
-36.625637 -16.497787 130.73009
111.73935 -19.327991 129.15717
-42.723198 -15.052009 128.7572
-38.797222 -14.259638 129.40234
-34.739609 -13.940894 129.70583
-30.486416 -13.628434 129.90388
-27.855808 -13.221013 130.31174
110.68449 -13.904286 128.9055
111.65887 -15.96929 129.46237
-37.670033 -11.916095 128.06184
-34.296883 -11.108852 128.54018
-30.515579 -10.503966 128.96194
-26.612913 -10.278906 129.56209
-24.018335 -8.9539928 130.49458
110.16735 -10.448857 129.26828
111.26941 -12.154125 130.9061
-29.698076 -8.1898499 127.73775
-25.956629 -7.909492 127.85331
-22.713621 -6.2528758 129.32927
109.29929 -6.9036536 129.53972
-21.224979 -3.5645964 128.47479
-18.289841 -2.1730614 129.19919
-14.515477 -0.68244356 129.55531
108.3054 -2.9693565 129.13266
-16.363628 0.11861027 127.75306
-13.572041 0.41220856 128.50636
-9.9160976 2.1904907 129.09392
-6.8085246 3.3174367 130.13922
109.63348 1.4417716 129.47458
-12.109457 5.5422359 127.75774
-9.7199249 6.1420836 128.6772
-5.9060817 6.298028 129.56506
-1.9062889 6.6894221 129.31036
1.7405584 6.8211002 129.63779
108.8849 5.5987096 129.30196
-7.8651948 8.5476522 127.76257
-5.3253555 8.82868 128.09891
-1.5423299 9.7494106 128.52002
2.4145002 10.062478 129.17007
6.3157706 11.172413 129.5293
9.5381632 11.404858 130.11644
107.00991 10.49505 127.89938
107.74551 9.5766096 129.71281
0.0088672042 12.142752 127.77171
2.7636371 12.377639 128.0477
7.3515453 13.19524 128.3456
10.659396 14.262079 129.80988
14.8597 14.685863 130.4951
17.825253 14.558098 130.6261
106.14549 14.09399 129.19809
107.40491 12.553841 129.67747
11.250757 17.100439 128.71332
14.417222 18.638693 129.75716
18.634277 19.356115 130.37672
21.065176 19.770933 130.79626
104.80749 17.681297 129.20872
16.085739 20.8034 128.79024
19.141167 21.95018 129.13422
23.075773 22.553886 130.19844
27.148357 22.546257 129.3533
30.743767 22.827673 129.68257
33.457382 24.051262 130.81073
106.56261 20.976631 129.14809
107.53539 22.366791 130.09915
20.429079 24.59704 128.54514
23.2908 24.896044 128.74854
27.433704 25.980824 128.03416
31.396587 26.166645 129.01265
34.907482 27.125156 130.33603
37.80619 28.364563 130.8156
102.54636 27.743378 127.89281
105.37998 25.890575 129.22964
28.544529 29.975737 128.30444
31.206608 30.141079 129.02711
35.294437 29.695606 128.98491
39.370449 29.60961 129.35583
43.183739 30.752384 129.45515
45.864799 32.043922 130.82494
101.83657 30.502354 129.29176
103.22164 28.491076 129.89357
44.556213 32.989788 128.48997
47.996544 33.97937 129.29608
51.412827 34.562408 130.16469
49.236614 38.239445 127.82851
51.337826 38.538525 129.57172
60.461079 40.218178 130.21675
63.846233 40.183125 130.29022
67.882378 40.079964 130.39606
52.4744 41.515728 128.89462
55.762726 41.377922 129.29759
60.092651 41.603283 128.8412
64.158073 42.512299 129.57327
67.885323 42.185905 130.31473
64.646263 46.733452 128.71292
68.16053 46.851234 130.02188
72.009743 48.121666 130.45494
65.04052 50.620312 128.56073
68.468353 50.762642 129.73425
71.95919 50.196762 129.75128
74.898392 49.27145 130.10831
66.073677 52.982216 127.84752
123.63689 -76.317818 134.92548
131.27115 -75.156258 133.93449
-125.60683 -71.026047 134.02795
-121.31058 -70.227257 134.50803
-117.78407 -69.802193 134.63719
125.90582 -71.774979 134.57785
129.65619 -72.653168 133.34415
131.7103 -74.131699 132.93494
-127.73255 -69.035645 131.62527
-124.61925 -68.405998 131.94145
-120.87655 -67.601761 132.46669
-116.93427 -67.058708 132.50899
-113.52306 -66.597939 133.33769
122.63657 -67.231674 133.3403
124.73434 -69.185081 133.11856
127.77681 -69.979012 131.92995
-119.71463 -64.91214 131.63455
-117.53088 -64.505463 131.63712
-111.80183 -64.027756 132.38306
-109.01917 -63.347546 133.53908
-104.95008 -62.864372 133.96451
-102.34282 -62.00145 134.65506
121.11319 -64.32357 133.28827
130.29997 -62.819626 131.93243
-111.28023 -60.582523 131.64429
-108.74262 -59.769951 132.13374
-104.58496 -59.397457 132.60339
-101.17979 -58.928944 133.45621
122.02486 -61.569782 133.04013
125.03712 -59.986385 133.07814
129.33412 -61.067104 132.40175
-105.03044 -56.867416 131.65147
-99.643295 -55.57233 132.58089
-96.961349 -54.000813 133.74422
-94.019859 -53.746449 134.66437
121.55083 -55.887886 133.42151
123.8087 -57.678547 133.091
-98.780655 -53.152302 131.65866
-96.41095 -52.469604 131.96913
-92.065392 -51.353729 132.98796
-88.857292 -50.115952 134.2417
-85.393768 -49.318432 134.67435
118.91479 -51.224087 132.29303
119.98599 -52.877193 134.00276
-90.663651 -47.739433 131.83461
-88.342468 -47.014397 132.71323
-84.222519 -46.986813 133.67557
-80.608025 -46.462452 134.41669
118.29494 -47.301735 132.91701
119.50334 -49.120014 134.51859
-87.02359 -44.347427 131.67204
-84.017242 -43.525074 132.02039
-79.943695 -43.582966 132.51375
-76.319214 -42.231194 133.44464
-73.245102 -41.079105 134.68823
116.99507 -43.638657 133.5152
-75.138069 -40.042049 131.86772
-71.840431 -38.642857 133.20255
-67.536377 -37.75135 134.36147
-64.940437 -37.287403 134.69785
114.6905 -38.16621 132.71207
115.58899 -40.240089 133.29788
-71.020203 -35.811806 132.10226
-67.472618 -35.153709 132.23315
-63.45583 -34.873974 132.83278
-59.892151 -33.699497 133.84
114.03657 -35.403938 133.24442
115.19108 -36.750473 134.91255
-62.224762 -32.728115 131.70076
-59.134068 -31.127367 132.32198
-55.5597 -30.342768 133.46716
-51.949825 -29.51812 134.51279
113.90557 -31.389032 133.28563
115.21851 -30.055527 134.91209
-54.722301 -28.136349 131.95938
-51.21022 -26.623354 133.0808
-48.722214 -25.389278 134.38301
114.58008 -27.235355 132.31113
115.76704 -27.384102 134.46812
-50.208832 -23.781799 131.71445
-47.327278 -22.780588 133.05113
-44.787621 -20.791765 134.72069
113.88832 -22.861647 133.05286
115.45327 -24.636683 134.91199
-45.431831 -19.726353 131.8627
-42.977211 -18.519733 132.65602
-38.784649 -18.464891 132.66518
-35.069004 -17.521433 133.30347
-30.709362 -17.005802 134.59435
113.7607 -19.117567 133.38326
-34.002476 -15.938685 131.87605
-30.383793 -15.671854 132.3625
-26.445093 -14.704978 133.38918
-23.334188 -13.21098 134.5639
113.13133 -14.982897 133.37518
-24.974438 -11.523523 132.04364
-22.72323 -10.396641 133.1656
112.30614 -10.891359 133.40726
-21.243113 -6.741612 133.02551
-18.652273 -4.6765685 133.95068
110.57964 -6.335525 132.40486
111.86774 -6.9809122 134.40645
-17.481541 -3.3750064 132.35199
-14.263122 -2.2124112 133.19052
-10.297571 -0.96309131 133.63539
-7.722333 -0.5397017 134.76343
110.17859 -2.5813429 132.40411
111.47356 -2.621887 134.739
-9.0341711 0.40923995 132.01178
-5.6592178 2.0065768 133.03841
-1.7937583 3.3173034 133.95772
2.258256 3.7992525 134.64999
110.92519 1.5596966 132.27971
112.03735 1.5865051 134.28104
-4.246223 4.5974112 131.7672
-1.3485236 4.6860857 131.97063
2.9943717 5.371038 132.73228
5.3354416 6.2266622 134.41487
110.43576 5.8506598 132.98073
111.62582 4.9568062 134.70529
4.1338854 8.3557482 131.7769
6.5331869 9.5625353 133.09785
10.832695 10.525024 133.13091
14.559898 11.284131 133.68385
18.666193 11.701624 133.87732
109.17216 9.4779301 133.35204
12.256565 12.68664 131.78629
14.646867 12.780752 131.78912
19.402622 13.756207 132.14088
22.05941 14.37849 134.23534
106.58915 14.986675 132.64856
108.07922 13.384445 133.78282
15.657177 17.28249 131.79001
18.907175 17.549376 131.91507
22.855387 18.480253 133.35732
27.060562 19.781326 133.80342
30.611994 19.806499 134.20764
106.30821 17.43527 132.77306
107.28332 17.960297 134.56586
23.808926 20.803581 131.79947
26.72681 20.774649 132.20294
31.640337 21.210081 132.54562
34.938766 22.929516 133.55173
38.1278 23.980318 134.81631
108.86912 21.987232 133.32935
36.244835 25.650728 132.20284
39.206127 26.559681 133.17851
42.926685 27.579027 134.09955
105.98528 27.267176 132.29695
108.50184 25.63051 133.62737
39.961575 28.575094 131.81816
44.135201 29.259459 132.18022
47.64975 30.92734 133.38966
51.694004 31.641777 133.38748
55.451782 31.798306 134.20003
104.77872 29.953875 133.39532
48.707699 32.903431 131.82828
52.388584 33.511806 131.83263
55.821846 34.357513 133.29819
58.094429 33.941067 134.8394
103.48524 32.845982 134.22691
53.718258 38.493992 131.83385
56.05357 38.824177 132.78256
59.875591 39.664879 133.42442
64.184624 39.516407 133.08626
68.113937 39.140842 133.19713
71.813042 39.454266 133.7377
55.972885 40.978569 131.83636
69.505898 44.12944 131.85226
72.363876 42.457066 132.77887
75.391594 42.660275 134.85939
69.748993 45.494102 131.85246
72.563988 46.524544 132.50089
76.121452 46.917595 133.97758
80.618034 47.248039 133.55101
77.146355 49.176533 132.52768
-121.53261 -78.209221 138.63338
122.35993 -79.208885 138.92419
-125.1116 -75.66626 137.37177
-121.13221 -75.449608 137.88364
-118.47974 -74.263649 138.23672
122.59161 -77.927238 137.92436
124.65265 -76.228012 136.88501
129.50822 -76.746048 136.93251
-124.56779 -72.712593 136.22932
-121.10155 -72.329803 136.21239
-117.0504 -71.785736 137.31824
-113.70579 -70.225197 138.08656
-109.02399 -69.725769 138.64766
124.91223 -72.743538 137.20174
129.05617 -74.330582 135.93179
-112.57215 -68.133904 136.68497
-108.66779 -67.579498 137.01155
-105.08755 -66.738678 137.45984
-102.11451 -65.814995 138.65562
122.54901 -67.605171 137.67357
123.84026 -69.305046 137.38675
-103.59695 -64.476669 136.72517
-101.73174 -63.094658 137.41588
122.10152 -64.395554 137.42279
123.50108 -62.56974 137.92433
-100.64925 -59.207378 137.10687
-98.140495 -57.296558 138.65974
122.65769 -58.320698 138.42303
124.48743 -60.394363 137.47374
-99.29612 -56.682323 136.51544
-96.646271 -55.679882 137.08997
-92.0411 -54.399948 137.28584
-88.719833 -53.856838 138.17073
121.74168 -56.195595 137.51268
123.27649 -58.024109 136.92372
-91.294373 -52.786568 136.00089
-87.842804 -51.929634 136.76253
-84.129143 -50.562984 137.295
-81.220612 -49.854958 137.87938
120.98273 -51.973015 137.6024
-83.778938 -49.049007 135.67625
-79.41433 -47.673347 136.86653
-77.451218 -46.324009 137.90584
119.0094 -46.040791 137.9178
120.275 -48.12978 137.62535
-75.38002 -43.618721 137.00166
-71.44725 -42.045967 137.35713
-68.33255 -41.990234 137.88167
118.16405 -44.00956 137.32838
-70.960815 -40.207165 136.02422
-67.27063 -39.741001 136.69525
-63.841721 -38.077667 137.38675
-60.199402 -37.318882 138.70352
117.15751 -39.721985 137.49844
-62.038044 -36.380199 136.03458
-58.998096 -35.39661 137.05263
-55.60321 -33.799374 137.76758
-52.221119 -33.074253 138.21274
114.76938 -33.804123 135.91185
115.99963 -35.785439 137.58015
-54.597866 -32.027668 136.26537
-50.865849 -30.936041 137.30038
-48.371174 -29.363632 137.91705
116.13653 -31.453112 137.5287
-49.556168 -28.274487 136.04887
-48.078899 -26.588184 137.23894
116.79792 -27.38525 137.56381
-46.265835 -22.961 137.05241
-43.153389 -21.440845 137.6227
-38.685406 -21.582071 137.42035
-36.08123 -21.00127 137.98111
-25.712673 -20.778791 138.41013
-23.227972 -20.923233 138.57976
114.9477 -21.918442 136.57787
115.73387 -23.50528 137.57893
-42.386642 -20.387535 136.22354
-37.961681 -20.207825 135.97879
-34.609276 -19.265877 137.19939
-30.334175 -18.42837 137.2711
-26.3578 -18.431047 137.05501
-22.555567 -18.273695 137.82812
-19.850658 -17.241652 138.75018
114.93703 -19.251104 136.46655
115.59219 -18.592422 138.02286
-24.821486 -15.71312 136.07747
-22.042952 -14.792529 136.58072
-19.068975 -14.272898 137.79089
114.56734 -14.815301 136.81023
115.29318 -15.693624 138.31117
-20.870142 -10.219303 136.46272
-19.513502 -11.015957 137.8168
114.17361 -11.112246 137.4095
-20.598536 -8.0428953 136.74861
-18.43453 -6.0206022 137.15105
-14.384214 -4.8128042 137.75581
-11.591856 -4.4734182 138.75911
113.32291 -6.9874754 137.44666
-13.283502 -3.3908446 136.42366
-9.9641247 -2.9463992 137.54355
-6.4180102 -1.5316448 137.67415
112.76137 -2.665067 137.49054
-4.8347921 0.41212484 136.51678
-1.9194101 1.4443051 137.34915
2.1308665 2.8075902 137.23647
6.590579 2.5369263 137.78029
9.4596748 2.2892034 138.45039
113.47216 1.4249127 137.4411
7.1530628 5.6370206 137.12555
10.418193 5.6649113 138.38463
13.406542 7.8979425 138.78802
110.76133 7.0013847 135.90411
112.20977 5.4086714 137.63326
7.844727 8.6954279 136.58133
10.673182 8.7939415 137.28468
14.595572 9.5154085 137.1893
18.806404 10.620662 137.36568
22.470425 11.229103 137.70767
110.44083 9.6914082 137.50357
23.814528 13.643473 136.9579
25.663927 14.538521 138.23073
109.21442 13.436865 137.34627
24.383202 17.001356 136.40044
26.888182 18.010374 137.26488
31.096073 18.479748 137.34999
34.971779 18.896584 138.12062
108.32728 17.666016 137.43892
36.00008 21.473539 136.81396
39.176044 22.602781 137.44269
42.61747 23.692976 138.3217
109.90646 20.875347 137.47353
111.56956 23.175795 137.70395
40.744186 24.641102 136.21938
43.618496 25.876053 136.91364
46.741962 27.273312 137.65968
109.52225 26.953424 137.2762
111.58538 25.035967 137.90382
48.41441 29.074507 136.92821
51.709351 30.234915 137.33205
55.854511 30.988375 137.23694
59.363285 31.692646 137.84108
106.44341 30.787376 136.89726
107.76805 29.150517 137.89899
60.103237 34.351913 137.13344
62.425301 34.285969 138.84456
69.225258 36.133339 138.25252
70.31012 35.894939 138.85384
102.32265 35.291401 137.09203
104.72575 33.770672 137.79501
60.420803 38.134518 137.2103
64.337357 38.814133 137.60841
68.201675 37.744251 137.50636
72.049217 37.952427 137.45576
75.994987 39.567574 137.50742
77.707062 42.564175 136.69548
80.277916 43.282982 138.40366
77.503235 45.19873 136.0284
80.720383 45.935291 136.96895
84.306335 45.101151 137.21985
-119.76401 -78.450523 139.6355
-116.80107 -78.849434 141.34872
122.78012 -80.006981 140.92474
123.72552 -79.692101 142.30086
-119.5926 -76.963432 139.63559
-116.67806 -75.799072 140.59247
-113.28012 -74.845848 142.43245
-109.9887 -73.929993 142.64684
124.45068 -76.521614 141.20648
-115.84079 -73.110558 139.63979
-113.09058 -72.206909 140.55605
-108.48099 -71.512817 140.96846
-104.9238 -70.842148 141.90263
-101.6928 -70.154564 142.5136
123.01995 -70.845322 141.92438
124.34339 -72.471207 141.02953
-103.93118 -68.287224 140.08221
-101.06227 -67.22258 141.38672
122.78668 -68.227188 140.9239
123.38255 -68.699066 141.92464
-101.52841 -63.535637 141.21172
-92.096832 -61.789665 142.66728
-90.182739 -61.684948 142.66954
122.70459 -65.271858 140.25691
123.86414 -63.574371 141.47031
-100.40269 -60.008549 141.08582
-96.7258 -59.001915 141.77267
-92.058731 -59.281239 141.70714
-88.782036 -58.982426 142.41176
-84.988991 -57.87891 142.67546
-81.048241 -57.669926 142.68015
122.60078 -59.326199 141.15381
123.95137 -60.87991 140.81949
-95.871643 -57.058151 139.66243
-92.314812 -56.41148 139.66663
-88.324867 -55.707695 140.99487
-83.981758 -55.509365 142.3015
-79.898117 -55.188099 142.45911
-76.568634 -54.16114 142.68524
121.63381 -55.989666 141.28831
-86.26754 -53.130077 139.6736
-83.596115 -52.493664 139.98444
-79.411667 -51.451954 140.73721
-76.548325 -51.459324 142.39935
-71.014969 -50.42144 142.60826
-67.791321 -50.538597 142.51363
120.86811 -52.118687 141.52046
-78.312454 -48.203381 139.68272
-76.46003 -46.957111 141.51244
-71.613777 -47.276058 141.96336
-68.132935 -47.118137 141.92059
120.50031 -48.041767 141.3428
-74.92791 -44.739964 140.18651
-71.838501 -44.358189 139.99017
-67.331543 -43.370541 141.04163
-64.95549 -41.42915 142.36484
118.7627 -42.06813 139.91722
119.90925 -44.041748 141.64601
-65.717911 -40.650742 139.69719
-63.355221 -39.915157 141.12102
-59.239323 -38.774422 141.49646
-56.131577 -37.758041 142.25388
-46.857521 -37.547779 142.71945
118.11553 -39.011589 141.51624
119.7444 -41.029633 142.66832
-58.0975 -36.714535 139.70599
-55.03368 -35.797752 140.85959
-50.957973 -35.194092 141.26279
-47.050873 -34.843319 141.80011
-43.145477 -34.493843 142.20366
117.303 -35.826637 141.43884
-49.52977 -32.120968 139.71587
-46.739719 -30.692162 140.44133
-42.957481 -30.870911 141.86998
-39.967255 -29.678921 142.7271
117.98315 -31.315441 141.41551
-46.511669 -26.943743 141.41911
-42.961025 -26.840193 142.5943
-39.047504 -26.689791 142.52109
-36.077579 -25.73477 142.73146
-24.516743 -24.806561 142.74518
-23.165945 -24.812098 142.7468
117.70477 -27.315586 141.49821
-45.712078 -23.87538 140.57698
-42.844868 -23.285969 140.84821
-38.702518 -23.740036 140.72818
-34.992603 -22.577641 141.56012
-30.612289 -22.139559 142.23772
-26.450825 -22.575411 140.91663
-22.177042 -22.791971 140.85893
-18.305029 -22.104464 141.87238
-15.045925 -21.130627 142.7562
116.87217 -23.517979 141.19936
-33.592907 -20.20944 140.13402
-30.853943 -20.073988 140.03728
-20.932564 -19.806864 139.74908
-18.082151 -18.844 140.67549
-14.711811 -18.325254 142.49553
116.88359 -18.99437 141.44275
-17.253883 -14.972847 139.75311
-15.031725 -14.439253 141.65228
116.4128 -15.002914 141.57915
-17.658052 -10.257019 140.97453
-14.442923 -9.9465733 142.54778
-9.9292259 -8.6565228 142.7614
-6.4688392 -8.9239855 142.76553
114.92809 -9.651638 139.91031
115.94673 -11.207795 141.57831
-17.641529 -7.3103552 140.36749
-13.967987 -6.8311949 140.67952
-9.8567457 -6.224339 140.78833
-5.867733 -6.2237663 141.79463
-3.1627729 -5.6449122 142.76926
11.189861 -5.2881627 141.78633
14.301829 -5.6822329 141.79007
16.765671 -4.7134805 142.79295
114.62849 -6.3868065 141.09154
115.50217 -7.0306077 142.48224
-5.2613049 -3.0359707 140.26657
-1.9515955 -2.099076 142.08293
1.9896389 -0.93816334 142.77505
6.7304564 -1.7251714 142.30077
10.447686 -2.4190485 140.8642
14.355324 -2.3076015 141.6286
16.769823 -3.7003832 142.79288
114.04987 -2.7283607 141.53377
-0.7483418 0.45801246 139.91454
2.3678744 0.97532159 141.04808
6.3714299 0.64391851 140.30647
11.188278 1.5157042 140.14583
14.442049 1.7820029 142.06557
16.797499 3.0536003 142.79242
114.39803 1.2693461 140.5089
115.33381 1.2919438 142.41
8.5363531 6.9848266 139.78227
10.99239 5.7916999 139.99742
14.685483 5.7444439 141.1123
16.921135 5.7547321 142.79236
113.40334 5.3020315 141.51854
10.193493 7.9698944 139.78419
15.863836 8.3496962 140.2195
18.778225 9.2398462 141.32375
23.175346 9.5999823 141.75607
26.735655 10.766141 141.89462
29.664692 11.44348 142.80714
110.94382 9.8603067 140.48749
111.48595 9.1271238 142.11914
27.633646 13.855975 140.68918
31.008846 14.445947 142.16147
35.025299 15.290063 142.12906
37.656979 15.743155 142.31636
110.23861 13.558756 141.33162
111.2858 11.697221 141.90443
28.0833 16.823311 139.80489
31.166912 16.870762 140.30855
35.412239 16.919502 139.94693
39.355656 18.031654 140.65607
43.016106 18.73167 142.19096
109.8342 17.977079 141.15225
39.773548 20.920862 139.81851
43.650238 21.819319 141.11937
46.967754 23.374149 142.51923
110.5667 20.595047 141.18864
112.40631 22.52389 141.90498
44.975838 24.358335 139.82446
47.863415 25.874863 140.95824
51.277489 27.201303 142.33177
55.848415 27.996265 142.83717
59.852978 27.293182 142.842
62.283722 27.114368 142.84491
110.12195 27.728136 139.90189
112.72404 26.111971 141.90511
52.294376 29.039503 140.49953
56.075363 29.660656 141.53731
59.744118 30.305445 141.72166
63.734432 31.531727 141.91298
66.896782 32.059723 142.85005
109.18684 30.112303 141.63394
64.391403 34.516117 140.3826
68.197479 34.63472 141.388
71.882904 34.781235 141.37433
75.445786 35.594273 142.57426
105.46891 34.501686 141.0387
107.93298 32.916225 142.23224
64.182076 37.613571 139.96405
66.716766 37.097282 139.84947
73.196823 37.070721 139.85721
76.643723 37.860485 141.38506
80.247719 39.378506 141.92793
83.477982 40.265526 142.86922
102.55844 37.677738 139.89215
103.8288 37.731022 142.03651
81.277161 41.595142 140.36652
84.690712 42.718605 141.51755
88.819557 43.434803 141.77191
92.32444 43.71537 142.06134
84.733658 44.693821 139.87041
87.378586 44.68298 139.87355
-115.64451 -80.473824 144.36784
-113.92812 -79.355537 145.64253
-110.82969 -77.910362 146.64613
-100.20872 -78.370476 146.65883
125.33223 -80.758377 145.51118
-113.06263 -76.807655 144.24339
-108.99098 -75.670166 145.3438
-104.90387 -75.26503 146.25301
-101.13641 -75.574844 146.65752
126.0774 -76.586739 145.42845
127.31676 -77.845032 146.93001
-104.56234 -73.072998 144.45326
-100.69587 -71.408073 145.78676
-98.298279 -69.630096 146.66046
124.73631 -72.415382 145.5148
-99.811859 -67.375778 145.28349
-96.77095 -67.537033 146.38214
-92.528229 -67.099968 146.39444
-88.085068 -66.627701 146.67242
-85.786804 -66.209869 146.67514
124.27147 -68.37941 145.5507
-100.56292 -63.727444 144.87956
-96.57505 -63.445976 144.79251
-92.408447 -64.112213 144.58012
-88.442291 -63.666409 145.58607
-84.343109 -63.298092 146.09973
-81.08078 -62.556362 146.56937
124.92328 -64.582924 145.64844
-97.612289 -60.72665 143.66063
-87.460762 -60.172722 143.87271
-84.25898 -59.755043 144.19374
-79.829353 -59.574875 145.12294
-76.432884 -58.427326 146.13017
122.84367 -58.429272 144.42328
124.04969 -60.557571 145.59154
-79.232254 -56.721188 143.68225
-75.684959 -55.771297 144.56644
-71.862572 -55.393494 145.35762
-67.860085 -54.854805 145.52902
-65.317337 -54.225475 146.44867
121.65466 -56.218426 145.27464
-75.535957 -50.5867 144.16243
-72.453163 -51.775505 143.68997
-66.770584 -51.518177 144.22617
-65.114624 -51.225002 145.64314
121.29288 -51.877789 145.63524
-75.593979 -48.233212 144.01932
-73.757828 -48.582035 143.68819
-66.629219 -47.155514 145.25661
-65.297523 -47.47826 146.69821
121.51384 -48.044781 145.34952
-66.36158 -43.995258 144.91891
-63.707546 -42.979218 145.64978
-59.393681 -42.828979 146.03825
-56.025642 -42.143875 146.64639
-50.838955 -41.870682 146.63812
-48.043594 -41.847202 146.49614
121.73683 -43.802223 145.75424
-58.112938 -40.455173 144.20627
-54.978905 -39.445534 144.95993
-51.183132 -39.061005 144.8508
-46.890289 -39.047569 144.96954
-43.438011 -38.07056 145.97359
-40.191177 -37.236065 146.72742
118.64459 -39.247486 145.36134
119.95502 -41.014828 145.25191
-41.870201 -35.595604 144.17984
-39.09901 -34.650719 145.66185
-35.835495 -33.261677 146.73232
118.56622 -36.32272 145.24992
120.05849 -34.560558 146.31824
-41.045044 -32.392925 143.72601
-38.482601 -31.216249 144.52211
-34.860653 -30.612535 145.89456
-32.175526 -29.631592 146.7364
118.79775 -29.647429 143.91637
120.00634 -31.323841 146.00887
-45.373306 -26.39002 143.72043
-43.876484 -26.26013 143.7222
-37.173367 -28.10129 143.73032
-34.358261 -26.975256 144.41103
-31.033659 -26.455141 146.01755
-26.482521 -26.277489 145.69295
-22.357092 -26.244736 145.47011
-18.69195 -25.565132 146.0022
-14.997899 -25.139441 146.75656
118.52236 -27.158878 145.6001
-33.393116 -23.990646 143.73453
-30.805786 -24.05163 144.03764
-28.089268 -24.284439 143.74088
-17.9552 -24.192034 144.30853
-14.041182 -22.800377 144.83754
-10.47988 -22.258707 146.10956
-7.8383183 -20.705416 146.76477
118.62098 -23.41016 145.3443
-12.848708 -18.705494 143.83559
-10.191425 -18.708475 145.19041
-6.8258109 -18.356651 146.76582
118.50855 -19.254377 145.48672
-12.949503 -14.352654 144.40109
-10.189301 -14.724563 146.06711
-6.0521417 -14.755383 146.15536
-2.5985425 -14.452984 146.49786
117.40741 -15.163301 145.35814
-13.167126 -11.172662 144.17442
-10.089915 -10.840464 144.86139
-5.7935233 -10.905955 144.55223
-2.1331623 -10.506107 145.96439
117.28995 -11.142041 145.38383
-4.2180815 -8.0590944 143.76817
-1.4508307 -6.602921 144.5571
2.0365224 -6.0310464 145.84958
6.4186502 -5.4608979 145.8918
10.306691 -6.7592173 145.4913
14.754723 -7.6343818 145.17538
17.68862 -5.9899707 145.43051
114.87198 -5.1620355 144.40994
116.49085 -7.0448885 145.74533
-0.45929021 -3.6536372 143.77232
2.3753352 -2.8371696 144.16029
5.6207438 -3.4057064 144.19624
16.214867 -1.0014499 143.79201
17.896633 -2.1246035 145.14705
114.80982 -2.9029043 145.50972
115.72824 -1.0745064 145.91068
15.9942 0.47307575 143.79166
18.786701 1.7446101 145.01366
22.698299 2.8730466 146.72806
27.091103 3.3362777 146.80469
29.753033 3.4410839 146.80785
116.09575 1.0322213 145.37761
19.179491 5.7832465 145.07094
23.0942 5.8735614 146.32751
27.036282 5.9384336 146.04686
30.729227 6.0027423 146.55884
33.934227 7.1930156 146.81258
114.03362 6.4197874 145.46367
115.88357 4.3332086 146.07713
19.891642 8.3646975 144.29575
22.868166 8.2118549 144.7993
27.314734 8.7436848 144.23314
31.193697 9.8055754 144.87161
34.949055 10.019531 146.36913
112.0838 9.6877565 145.33412
32.093803 12.485532 144.00999
35.238735 13.219969 144.97159
39.279839 14.753407 145.48506
42.678024 15.656602 146.32237
110.81605 14.253853 143.90369
111.8261 13.422649 145.90497
43.868313 17.056198 145.0737
46.929611 18.719282 145.89865
111.95221 17.892807 145.82147
48.072548 21.951763 145.0506
51.427364 23.272608 146.09894
55.715275 23.74683 146.42067
59.86961 23.729803 146.42563
63.857983 23.956785 146.84703
66.635864 24.118977 146.85034
112.64141 22.264984 145.67001
52.302063 25.620434 144.42137
55.947166 26.030634 144.80888
59.851284 25.341158 144.52397
64.211807 25.99448 144.655
68.072838 26.617172 146.12109
70.815834 27.573355 146.85506
113.8156 25.845154 145.25645
61.454166 29.192389 143.84377
64.342262 29.648016 144.3472
68.190689 30.273581 145.09312
71.4972 30.467146 146.18901
110.25481 30.763716 145.36339
112.05836 28.707367 145.90416
69.175697 32.448051 143.85274
73.132416 33.155006 145.13014
76.326973 34.688637 145.70729
79.168488 35.703239 146.19775
106.64874 35.190624 145.0639
108.62144 33.336006 145.73305
80.914261 37.808086 145.13303
84.530258 39.166542 145.75946
88.371468 39.847782 146.54178
105.59788 38.145702 145.81885
85.957169 40.862736 144.20549
88.960732 41.430428 144.80904
92.777679 42.390209 145.40651
96.616135 43.489689 145.61195
99.697243 44.118229 146.88831
105.5845 40.622585 146.89557
-100.74917 -83.149414 148.65852
-112.26351 -80.451538 148.39461
-108.96225 -79.897667 149.11908
-104.68305 -80.128586 148.54836
-100.39922 -80.480377 148.1133
-97.225021 -80.012199 149.6875
126.84218 -82.137985 148.42976
128.23894 -80.732529 149.73134
-108.43835 -77.752747 147.64896
-104.82552 -77.456871 147.65326
-100.20538 -75.888496 148.0515
-96.797157 -75.841881 149.42587
-92.659538 -74.857414 150.23009
-89.586456 -74.418327 150.67122
127.08456 -75.517906 149.92958
128.10129 -77.518913 149.68094
-99.349663 -72.566727 148.02306
-96.608849 -71.813034 148.42931
-92.125534 -71.629425 148.70369
-88.300224 -71.729706 149.60587
-84.633392 -70.830338 150.30186
125.91945 -72.498886 149.74048
-95.821716 -69.416153 147.66341
-91.78466 -68.987869 147.66818
-87.930946 -68.408882 147.74966
-84.087181 -67.63385 148.73976
-80.521317 -66.862259 150.22694
-77.427261 -65.909821 150.6851
126.13895 -68.50161 149.81029
-83.151199 -64.994331 147.67819
-79.675308 -64.070251 148.90956
-76.175804 -63.116261 149.75534
-72.198822 -62.611862 150.54825
-69.56469 -61.662876 150.69417
126.60345 -64.271751 149.83728
-75.651123 -60.254501 148.22527
-71.860603 -59.69128 148.69127
-67.897438 -59.149292 149.5596
-65.362999 -58.223457 150.36562
124.8603 -60.27985 149.22583
-66.315201 -56.773285 148.26909
-64.432281 -55.146969 149.87372
122.80271 -56.003742 148.92307
123.69948 -56.639423 150.63847
-63.238499 -51.19672 148.67152
-59.463165 -51.273495 149.62852
-56.108448 -50.620193 150.48213
122.8157 -52.836929 148.92285
123.67108 -51.507057 150.17378
-63.417194 -47.297943 148.14871
-59.412487 -47.273354 148.09807
-55.55024 -47.266872 149.39732
-51.340897 -46.939381 149.75186
-48.003571 -46.208031 150.16319
122.70789 -48.991589 147.92245
124.02369 -47.553902 150.02393
-63.216183 -44.821777 147.70052
-59.022682 -44.984596 147.70552
-55.015186 -43.844131 148.13126
-51.423611 -43.946846 148.11449
-46.828907 -43.389622 149.17827
-43.591011 -41.497868 150.59869
122.39053 -42.888702 149.54663
123.63919 -44.788124 149.67326
-45.724689 -40.961452 147.72107
-42.718243 -39.74995 148.93886
-39.133247 -38.429291 149.61111
-36.302261 -37.550587 150.73209
120.3076 -39.46117 149.55527
-37.558544 -36.106209 148.23047
-34.617188 -35.242237 149.17836
-30.83783 -34.519798 150.11337
-26.301311 -33.597687 150.74371
-23.090815 -33.325569 150.74753
121.41903 -35.705757 149.71996
-33.280651 -32.099884 147.73528
-30.72764 -31.048063 148.55641
-26.582371 -30.859871 149.20982
-22.57243 -30.772532 150.02382
-19.365307 -29.204311 150.75168
121.44041 -31.384754 149.64694
-29.851629 -28.1992 148.02481
-26.84683 -28.329502 147.99268
-22.126171 -28.093782 148.19272
-18.049276 -27.435686 149.1281
-14.0804 -26.737545 149.57028
-10.256222 -25.825974 149.96227
119.856 -27.393429 149.76366
-9.4410791 -24.017895 148.51311
-6.358263 -22.385248 149.60667
-3.7851551 -21.280388 150.76968
120.45331 -23.335447 149.33459
-5.0543013 -19.244204 148.35133
-2.4978938 -18.280466 149.47098
0.51148582 -17.018831 150.77449
120.07043 -18.963472 149.5535
-0.67493606 -15.065054 148.37292
2.0432534 -14.122442 149.9485
5.7872944 -13.117883 150.7805
118.61666 -14.801906 148.74843
119.6235 -15.010864 150.91634
-0.30734074 -11.384766 147.97308
2.312921 -10.527016 149.57616
6.0771732 -10.203364 150.78064
10.750233 -9.8952007 150.22368
14.163877 -10.019642 149.45692
18.01972 -9.3219233 150.36624
118.76485 -10.947289 148.91501
119.64104 -10.731769 150.91605
3.0459235 -7.954145 148.44351
6.4368372 -7.5806365 148.65585
9.7996359 -8.1465244 148.61824
16.622288 -8.3628073 147.79306
19.375301 -6.9481864 149.10873
118.0605 -6.9594283 149.61388
19.95583 -2.6112711 148.79662
21.426512 -1.5310396 150.29829
116.4437 -2.8545024 149.66167
20.151735 0.011030838 147.79666
23.110994 0.96931797 149.11261
26.97794 1.7962469 149.28087
31.046772 1.7875246 149.18883
34.092934 2.3752489 150.41313
117.66908 1.5564177 149.4753
32.279446 4.4472618 148.21078
35.469509 5.732203 149.0645
38.837086 6.9895005 150.45482
114.61739 7.3671732 148.90875
116.54718 5.4624882 149.82785
37.028431 9.3969383 148.0661
39.173523 10.047164 149.81862
113.82149 9.7125463 149.45308
39.850151 12.984627 149.51151
43.487198 14.501849 149.41167
47.32222 15.362206 150.54225
51.459576 15.401009 150.83289
113.26017 13.562064 149.45213
47.890285 17.035919 148.96182
51.594521 17.82152 150.48805
55.92794 18.057173 150.83803
60.132 18.272079 150.80136
62.941677 18.215214 150.84637
113.46365 17.667181 149.65662
49.594868 20.511599 147.83028
52.12809 21.441357 149.20824
55.78973 21.798143 149.33757
59.860188 21.760538 149.16385
64.060257 22.013058 149.81169
67.828697 22.859322 149.85185
71.730156 23.60881 150.85646
113.01358 22.064449 149.35022
68.950134 24.763288 148.25305
72.303879 26.016546 149.09695
76.005371 26.845703 150.62604
78.432701 27.593061 150.86417
114.30108 25.949215 149.65703
73.36937 29.579374 148.00082
76.293297 30.209978 149.99779
78.450233 31.872162 150.86388
110.71637 31.706656 148.56902
112.96037 29.648081 149.82825
77.119705 33.499409 148.61215
80.387917 34.685345 149.6895
84.180855 35.911503 150.31485
106.99451 36.252106 148.89758
109.1085 34.314503 149.53181
82.515892 36.803761 147.86836
85.149628 37.574913 149.12143
88.756752 38.41655 149.62567
92.285217 39.186508 149.87984
94.887085 40.006527 150.88289
106.86288 38.595177 149.49725
107.71417 37.457771 150.89836
93.555 41.191971 148.73834
96.746361 42.156311 149.55161
100.61554 43.393372 149.35098
105.38501 42.601044 150.04904
-94.883934 -83.361855 151.66556
-93.47007 -83.859665 154.01103
131.39467 -83.687691 155.93533
-95.31208 -79.984673 151.79813
-92.513145 -80.135788 153.83482
-88.335175 -79.730225 155.30469
-85.170891 -78.794281 155.47681
130.00974 -80.398636 153.54883
131.40222 -81.845695 155.93521
-95.219948 -77.760727 151.66475
-92.040672 -76.951805 151.89926
-87.96228 -76.108482 152.80373
-84.069702 -75.755165 154.13623
-81.373199 -74.222359 155.431
128.33005 -76.454849 153.99365
-86.585945 -73.129654 151.67471
-83.561287 -72.455299 152.09932
-80.487152 -71.677841 154.07472
-76.862915 -70.478691 155.51944
126.69266 -72.285767 153.98152
127.74992 -74.094215 155.9303
-79.575882 -68.78698 152.04637
-76.023247 -67.570961 153.04405
-72.123634 -66.839882 154.33856
-67.768593 -66.555656 155.60576
-65.261421 -65.93499 155.69962
126.63947 -69.516846 152.78578
128.10992 -68.238899 154.33029
-74.347687 -64.923759 151.68871
-71.387711 -64.263237 152.02551
-67.625282 -63.588612 153.19662
-63.922184 -63.244137 155.1358
-60.825531 -62.269123 155.70464
128.21043 -64.434311 154.19679
-66.639008 -60.852959 151.6976
-63.395046 -59.650902 153.70139
-59.666691 -59.586178 155.27725
-55.62883 -58.578381 155.24391
125.92345 -60.317631 153.80211
-62.911251 -56.003246 152.41599
-59.418194 -55.564831 152.82121
-55.186844 -55.200069 153.09795
-51.715813 -54.950222 155.01497
-48.265217 -53.847279 155.71901
125.29797 -55.769131 154.17604
-54.396809 -51.8759 151.8544
-51.285378 -51.495872 152.99524
-47.341545 -51.130569 154.46065
-44.211819 -49.894993 155.52356
125.46586 -52.023304 153.85931
-50.950974 -49.225456 151.71547
-46.671116 -47.518833 152.36044
-43.014946 -47.14249 154.19144
-39.401703 -46.642902 155.22905
126.202 -48.049873 154.38809
-45.787334 -44.699802 151.7213
-42.770519 -43.538311 152.80482
-38.761204 -43.144691 153.94832
-35.2854 -42.359566 155.46698
122.5344 -42.309704 152.92178
124.35177 -44.095413 154.12407
-38.178467 -39.910183 152.09364
-34.601555 -39.384895 153.12556
-30.652679 -38.837719 153.85004
-26.638912 -38.74509 154.86134
-22.626139 -38.34137 154.88177
-20.200401 -37.75248 155.75131
121.99402 -39.58358 153.99237
123.47707 -37.97298 155.92259
-29.870728 -36.189827 151.90633
-26.6178 -35.719307 152.4935
-22.250397 -35.302406 152.63329
-19.008551 -34.695488 154.86362
122.76009 -35.936226 152.42159
124.16455 -35.694717 155.01416
-21.08868 -32.47678 151.74985
-18.281696 -31.282238 152.98645
-14.375916 -30.609514 154.25772
-10.274875 -29.965239 154.76257
-6.9032831 -29.333664 155.76654
122.29465 -31.056999 153.78735
123.82061 -32.661247 155.17262
-13.597056 -28.380512 151.90134
-9.731946 -27.693167 152.37843
-5.9903178 -26.690018 154.04744
-3.1971271 -25.623999 155.52069
121.20631 -27.28981 153.86029
-5.0889091 -24.146448 152.01833
-2.5541587 -22.731073 153.91411
122.17071 -23.364252 153.1927
123.53896 -22.868618 155.92159
-0.94014162 -19.418682 152.87296
1.7756586 -18.094524 154.41246
7.125493 -17.180525 155.28239
10.710614 -17.575762 155.4117
13.259356 -17.10062 155.45638
121.72532 -19.106083 153.91914
123.54651 -21.026623 155.92145
3.4024479 -16.089867 152.49216
6.7635489 -14.908716 152.32347
10.445435 -14.780579 152.65715
14.310132 -14.305485 154.05162
17.107622 -13.590652 155.79404
120.52764 -15.064772 153.85492
7.3336754 -10.888225 151.78218
10.369483 -11.714308 151.78586
15.012607 -11.814719 152.33687
18.842409 -10.970194 153.73709
22.183352 -9.5520058 154.63313
120.98526 -11.057647 153.91769
22.563269 -6.6223989 153.85886
118.82402 -6.2805181 152.91476
120.3875 -7.5851073 154.631
23.206186 -2.5702453 153.60051
27.210072 -1.0297182 154.70517
31.251888 -1.3920424 153.99753
34.813251 -1.3549751 155.01425
37.422455 -0.77973306 155.81734
117.94036 -2.922606 153.78847
24.273342 0.0025551915 151.80161
26.834108 0.095821343 152.37607
30.734509 -0.02392786 151.8093
35.878365 1.4407735 152.98199
39.014484 2.4171443 154.944
42.598167 3.6199155 155.82318
118.81593 1.0678318 153.55707
119.95113 2.2671275 155.7155
37.213329 4.2570243 151.81671
39.865971 5.2426782 152.5845
43.246353 6.0952349 153.95419
46.957664 6.6229706 155.82816
51.823254 7.2661572 155.83391
55.138103 7.068368 155.83789
118.09994 5.410048 154.20717
43.468113 9.8509789 152.35501
47.613888 9.6860847 153.26624
51.569214 9.6212921 154.00012
55.356354 9.9392462 155.07794
58.102661 11.292876 155.84111
114.78852 10.439158 152.40874
116.06967 9.1196842 154.41037
43.73114 12.631127 151.9008
47.59676 13.405093 151.91176
51.431396 13.518848 152.37468
55.685619 13.992785 153.18178
60.0872 14.088109 154.10042
63.837322 14.470841 153.99771
66.970383 15.12868 155.13713
114.45287 13.726533 152.90811
115.5836 13.63611 155.90947
55.779884 18.33737 151.83783
58.60931 17.48344 151.84126
65.209007 18.08185 151.84909
68.206512 17.898994 154.07996
71.720032 18.909151 155.35681
75.9254 19.587887 155.86176
79.136169 19.679987 155.86559
114.43506 17.886002 152.81688
115.60021 17.688503 155.90919
55.228676 20.695297 151.83701
65.997292 20.651159 151.84984
68.663925 20.974751 152.42444
72.354691 21.556215 152.97736
76.295235 22.010365 154.32356
79.265251 22.218801 155.61555
114.13687 22.105381 153.90714
115.61078 20.267296 155.90903
76.687614 25.001791 152.02895
80.507767 25.907087 153.4437
84.049706 26.639561 154.87093
113.95387 26.060654 153.8297
78.242905 30.651819 151.86372
80.401466 30.213873 152.76633
84.077148 30.36157 155.33736
111.2383 32.074184 155.90295
113.5454 30.341991 154.15582
81.187622 33.378716 152.49203
84.696297 34.258934 153.68933
88.872803 35.256714 154.11417
92.85437 34.961998 155.0475
96.045868 35.657997 155.71791
106.58598 35.531704 155.89717
109.07664 34.434036 154.4856
111.63546 32.741398 153.90338
89.273041 37.038872 152.1264
93.027367 37.492134 152.46909
97.226837 38.326046 154.19016
100.74799 39.045547 155.81851
106.20392 38.92379 155.56314
107.70285 38.216324 154.12907
97.509499 40.96513 152.08594
101.16131 41.816593 153.41656
105.34757 41.956558 153.74522
107.67481 41.12468 153.89806
-91.869919 -84.536301 157.66925
-88.420639 -83.861542 158.39555
-85.233925 -83.356606 159.2771
132.70232 -84.858292 158.83698
-87.359352 -81.646477 156.87442
-83.568314 -80.007774 158.0955
-81.63665 -79.367653 159.68109
130.51442 -79.394135 158.43399
132.03535 -81.74601 158.81097
-82.672302 -76.912628 157.17967
-80.04081 -75.957954 158.45197
-76.752922 -75.090286 159.58659
129.22052 -76.716927 158.75043
-78.772797 -73.162346 157.35072
-75.664917 -72.300362 158.42455
-71.72776 -71.810692 158.8405
-67.832054 -71.429604 159.12555
-63.877258 -70.422859 159.7016
-60.910473 -69.91185 159.70511
127.15527 -72.047165 157.92946
128.18214 -72.269615 158.7728
-71.688919 -68.936485 156.83504
-67.148239 -68.433304 157.36424
-63.345383 -67.605713 158.42204
-60.196552 -67.156418 159.56291
130.10919 -68.567818 158.73274
-62.529984 -64.803513 156.9528
-59.370411 -63.699997 157.96736
-55.944378 -62.478672 159.0105
-53.319492 -61.63023 159.71356
129.34857 -64.459366 158.68153
-58.24625 -61.195992 156.70766
-54.881397 -60.378975 157.71161
-51.551792 -59.121124 158.61021
-47.561924 -58.400627 159.56636
126.80464 -59.548168 157.42813
128.04659 -60.420155 159.76302
-50.282768 -56.451565 157.09181
-46.849609 -55.409935 157.97083
-44.366058 -55.066017 159.42375
127.22101 -56.002918 157.92838
128.07137 -56.328091 159.92943
-45.701149 -52.707264 157.05533
-42.914963 -51.686699 158.17523
-39.666527 -50.188488 158.87187
127.22109 -52.191864 157.67812
128.16899 -51.829887 159.35779
-38.050655 -48.041843 157.65385
-35.12199 -46.7159 158.73418
126.88765 -46.300209 157.92729
128.13329 -48.197449 159.02892
-34.431744 -44.00742 157.2348
-30.836348 -43.03944 158.46629
-26.484842 -42.310013 158.74416
-22.682402 -42.355602 159.38507
-19.734566 -41.615803 159.75217
125.18087 -43.869713 158.37962
-26.31164 -40.615475 156.94423
-22.023491 -40.515385 157.64934
-18.509037 -38.8367 158.65816
-16.191486 -37.599907 159.75609
124.1019 -39.423031 158.84654
-17.360807 -35.668552 157.53232
-14.709787 -34.693462 158.96817
-10.129228 -33.543961 159.76303
125.23754 -35.496281 158.96999
-13.329436 -32.614563 157.50914
-9.990799 -32.008991 157.76308
-5.7610922 -30.79319 158.51804
-2.3260148 -29.911678 159.57207
122.74171 -30.268429 158.75452
124.1953 -32.43251 158.92308
-4.7213902 -28.417128 156.76909
-1.5780196 -26.94982 158.32275
122.59615 -27.621883 158.20653
123.6611 -26.081886 159.92198
-0.5332638 -23.281275 157.64873
0.7491768 -21.815502 158.94182
124.29392 -23.493368 158.72255
2.7574518 -19.381346 158.44403
6.219698 -18.347153 158.28142
10.696012 -19.218246 158.24834
14.540421 -18.572805 158.72887
17.142572 -17.332556 159.79437
122.64236 -18.403225 157.75354
123.78484 -20.287624 158.92171
15.8784 -16.053011 157.12608
18.629644 -14.730904 158.49596
21.797073 -13.308184 159.63295
40.324352 -15.664263 159.82188
42.622215 -15.392146 159.8246
122.28737 -14.908422 158.77669
20.558754 -11.836237 156.79805
23.401482 -11.257619 158.05139
26.195387 -9.9073343 159.07735
122.74314 -10.882654 158.65314
24.291437 -5.7338824 156.80205
26.028198 -6.7067423 159.0042
121.34577 -6.8392339 158.61014
26.912624 -2.7054257 158.42035
31.081198 -3.1392643 158.64328
35.490799 -3.0282657 158.31522
38.986473 -2.1611192 159.06932
42.823441 -1.4515849 159.74692
119.22791 -2.2884681 157.4864
119.97828 -2.8883095 159.74925
40.067192 0.69323772 157.52039
43.497429 1.5929874 158.15775
47.013332 2.2690158 159.24033
50.101887 3.6920404 159.83214
56.525269 3.6657124 159.8398
59.170193 3.6548715 159.84296
119.2299 -0.37613055 156.91484
120.37141 1.5831252 158.8605
45.095856 4.3769321 156.82613
47.985832 5.2388349 157.61522
51.80735 5.5916915 158.60677
55.842831 5.6240873 157.88231
59.893253 5.7108197 158.63535
63.209911 6.3384209 159.68091
118.84749 5.9441366 158.24727
120.00779 4.3273067 159.16544
57.572887 9.0716076 156.84065
60.381203 9.8256321 157.70111
63.923241 10.073843 158.99815
117.44108 9.5760069 158.54837
64.557587 12.507392 157.51541
68.145775 13.712364 158.39139
72.051392 15.018331 159.1575
75.089272 15.680874 159.86107
81.134804 15.656095 159.86829
83.401878 15.646802 159.87099
116.72817 13.537936 158.99419
72.529327 17.039436 157.42935
76.577438 17.795372 158.38269
80.321846 17.821733 158.08142
84.034134 17.714312 159.4716
